ncols        94
nrows        59
xllcorner    2793260.42814
yllcorner    1180268.5768
cellsize     0.050000000000
NODATA_value -32767
2374.76953125 2374.7666015625 2374.765625 2374.7548828125 2374.745361328125 2374.7275390625 2374.722412109375 2374.7119140625 2374.709716796875 2374.690673828125 2374.677978515625 2374.658447265625 2374.65869140625 2374.6630859375 2374.674560546875 2374.677978515625 2374.6962890625 2374.688232421875 2374.6572265625 2374.626953125 2374.5810546875 2374.529541015625 2374.448974609375 2374.406005859375 2374.377685546875 2374.354248046875 2374.340576171875 2374.326416015625 2374.30517578125 2374.2900390625 2374.26953125 2374.263671875 2374.25634765625 2374.254638671875 2374.242919921875 2374.222900390625 2374.1923828125 2374.17578125 2374.17236328125 2374.16845703125 2374.159912109375 2374.146240234375 2374.130615234375 2374.128662109375 2374.119140625 2374.10107421875 2374.086181640625 2374.065185546875 2374.05419921875 2374.053466796875 2374.05908203125 2374.06201171875 2374.072998046875 2374.0888671875 2374.106689453125 2374.11767578125 2374.12109375 2374.122802734375 2374.128662109375 2374.129150390625 2374.13720703125 2374.146240234375 2374.153564453125 2374.1669921875 2374.189697265625 2374.226806640625 2374.29296875 2374.351806640625 2374.388427734375 2374.3994140625 2374.417724609375 2374.42138671875 2374.42724609375 2374.43359375 2374.416015625 2374.41064453125 2374.39599609375 2374.3955078125 2374.37548828125 2374.350341796875 2374.336669921875 2374.323974609375 2374.31005859375 2374.30615234375 2374.3056640625 2374.3046875 2374.2919921875 2374.28564453125 2374.28564453125 2374.283447265625 2374.264404296875 2374.261962890625 2374.260498046875 2374.256591796875
2374.750732421875 2374.730712890625 2374.725341796875 2374.722900390625 2374.712646484375 2374.699462890625 2374.689208984375 2374.67333984375 2374.657470703125 2374.63427734375 2374.619140625 2374.617431640625 2374.62646484375 2374.642578125 2374.65283203125 2374.6640625 2374.671875 2374.661376953125 2374.627685546875 2374.59130859375 2374.55322265625 2374.498046875 2374.427490234375 2374.391845703125 2374.364990234375 2374.34716796875 2374.328369140625 2374.30908203125 2374.2890625 2374.267333984375 2374.2529296875 2374.240478515625 2374.223388671875 2374.212158203125 2374.2001953125 2374.185791015625 2374.16552734375 2374.156494140625 2374.14697265625 2374.14208984375 2374.128662109375 2374.123291015625 2374.114990234375 2374.1083984375 2374.093017578125 2374.080810546875 2374.057373046875 2374.049072265625 2374.040283203125 2374.036376953125 2374.03955078125 2374.0400390625 2374.049072265625 2374.07080078125 2374.0849609375 2374.089111328125 2374.10498046875 2374.10498046875 2374.1044921875 2374.105712890625 2374.112060546875 2374.113037109375 2374.1240234375 2374.14794921875 2374.162841796875 2374.19677734375 2374.277587890625 2374.318115234375 2374.36083984375 2374.38232421875 2374.390869140625 2374.39794921875 2374.402099609375 2374.401611328125 2374.40087890625 2374.393798828125 2374.394287109375 2374.387939453125 2374.36279296875 2374.333984375 2374.315185546875 2374.29833984375 2374.277099609375 2374.265380859375 2374.265380859375 2374.266357421875 2374.267333984375 2374.26416015625 2374.255615234375 2374.255126953125 2374.2490234375 2374.236083984375 2374.226318359375 2374.21533203125
2374.723876953125 2374.711181640625 2374.70703125 2374.698486328125 2374.672607421875 2374.665771484375 2374.658447265625 2374.639892578125 2374.611328125 2374.57958984375 2374.572509765625 2374.5732421875 2374.583251953125 2374.606689453125 2374.624755859375 2374.640625 2374.639404296875 2374.62158203125 2374.59765625 2374.5595703125 2374.521484375 2374.4716796875 2374.419921875 2374.38330078125 2374.35302734375 2374.328857421875 2374.31396484375 2374.290771484375 2374.27001953125 2374.25 2374.227294921875 2374.2138671875 2374.19384765625 2374.17724609375 2374.16357421875 2374.14892578125 2374.1357421875 2374.125 2374.1220703125 2374.11376953125 2374.105712890625 2374.1044921875 2374.090576171875 2374.072998046875 2374.0703125 2374.0517578125 2374.037109375 2374.019775390625 2374.016357421875 2374.010498046875 2374.015380859375 2374.0166015625 2374.0234375 2374.043212890625 2374.0615234375 2374.065673828125 2374.06982421875 2374.072021484375 2374.07080078125 2374.0751953125 2374.081787109375 2374.088623046875 2374.1005859375 2374.12109375 2374.148193359375 2374.17822265625 2374.25537109375 2374.287841796875 2374.325927734375 2374.361572265625 2374.36474609375 2374.37255859375 2374.372314453125 2374.371337890625 2374.370361328125 2374.373779296875 2374.380126953125 2374.364013671875 2374.349609375 2374.320556640625 2374.298828125 2374.27001953125 2374.254638671875 2374.2421875 2374.241943359375 2374.2392578125 2374.235595703125 2374.23095703125 2374.223388671875 2374.216552734375 2374.209716796875 2374.203369140625 2374.195556640625 2374.17578125
2374.699462890625 2374.678955078125 2374.666748046875 2374.6611328125 2374.64404296875 2374.6396484375 2374.615478515625 2374.60986328125 2374.5595703125 2374.5419921875 2374.5361328125 2374.543701171875 2374.555908203125 2374.57275390625 2374.586669921875 2374.58935546875 2374.588134765625 2374.577880859375 2374.560546875 2374.52685546875 2374.48876953125 2374.447998046875 2374.408935546875 2374.37548828125 2374.348388671875 2374.31640625 2374.302490234375 2374.27685546875 2374.256591796875 2374.2255859375 2374.212158203125 2374.186279296875 2374.168212890625 2374.143798828125 2374.1279296875 2374.114990234375 2374.113037109375 2374.1123046875 2374.104736328125 2374.093505859375 2374.090576171875 2374.080078125 2374.065185546875 2374.049560546875 2374.038818359375 2374.02978515625 2374.01416015625 2374.00439453125 2373.996826171875 2373.99267578125 2373.99267578125 2373.9951171875 2374.0048828125 2374.013916015625 2374.0361328125 2374.043701171875 2374.042724609375 2374.0361328125 2374.03857421875 2374.051025390625 2374.066650390625 2374.0703125 2374.075927734375 2374.089599609375 2374.118408203125 2374.153076171875 2374.205810546875 2374.2626953125 2374.301025390625 2374.3271484375 2374.343017578125 2374.343017578125 2374.3427734375 2374.335693359375 2374.35595703125 2374.356689453125 2374.355224609375 2374.347412109375 2374.329833984375 2374.297607421875 2374.270263671875 2374.2431640625 2374.2216796875 2374.212890625 2374.20263671875 2374.2001953125 2374.20849609375 2374.2099609375 2374.18408203125 2374.1806640625 2374.17822265625 2374.177001953125 2374.150390625 2374.13818359375
2374.667236328125 2374.650146484375 2374.627685546875 2374.623779296875 2374.610107421875 2374.597412109375 2374.583984375 2374.552001953125 2374.533935546875 2374.520751953125 2374.51123046875 2374.509521484375 2374.52099609375 2374.533203125 2374.551513671875 2374.557373046875 2374.556884765625 2374.55224609375 2374.52685546875 2374.489013671875 2374.4619140625 2374.42333984375 2374.39453125 2374.3740234375 2374.348388671875 2374.313720703125 2374.301025390625 2374.27001953125 2374.236083984375 2374.200439453125 2374.179931640625 2374.164306640625 2374.140625 2374.10888671875 2374.10546875 2374.100830078125 2374.09423828125 2374.0859375 2374.0830078125 2374.069091796875 2374.0615234375 2374.06005859375 2374.041748046875 2374.03515625 2374.013916015625 2374.007568359375 2373.99853515625 2373.974853515625 2373.973876953125 2373.96923828125 2373.969970703125 2373.981201171875 2373.992919921875 2374.001220703125 2374.007080078125 2374.019287109375 2374.02099609375 2374.009765625 2374.00927734375 2374.009033203125 2374.02685546875 2374.048095703125 2374.054931640625 2374.072998046875 2374.0849609375 2374.118408203125 2374.169677734375 2374.222412109375 2374.266845703125 2374.305908203125 2374.31982421875 2374.32470703125 2374.318115234375 2374.309326171875 2374.30712890625 2374.3115234375 2374.32568359375 2374.318115234375 2374.295654296875 2374.267578125 2374.234130859375 2374.21435546875 2374.200927734375 2374.188232421875 2374.187255859375 2374.18603515625 2374.1787109375 2374.1748046875 2374.170166015625 2374.1435546875 2374.13720703125 2374.1318359375 2374.111328125 2374.105712890625
2374.642578125 2374.62744140625 2374.613525390625 2374.598876953125 2374.58544921875 2374.56396484375 2374.53271484375 2374.51904296875 2374.509521484375 2374.491943359375 2374.486328125 2374.48681640625 2374.50390625 2374.510986328125 2374.509521484375 2374.50830078125 2374.503173828125 2374.4853515625 2374.473876953125 2374.453369140625 2374.42919921875 2374.4111328125 2374.384521484375 2374.361083984375 2374.342041015625 2374.3115234375 2374.29345703125 2374.250244140625 2374.209716796875 2374.17822265625 2374.15234375 2374.115478515625 2374.0947265625 2374.08203125 2374.070556640625 2374.070068359375 2374.064453125 2374.06005859375 2374.05908203125 2374.04833984375 2374.044921875 2374.033203125 2374.02490234375 2374.0078125 2374.00341796875 2373.9912109375 2373.96875 2373.96435546875 2373.9638671875 2373.962158203125 2373.960693359375 2373.96044921875 2373.96923828125 2373.9716796875 2373.98681640625 2373.997314453125 2373.997802734375 2373.994873046875 2373.995361328125 2373.995849609375 2373.99560546875 2374.00634765625 2374.029296875 2374.032958984375 2374.061279296875 2374.084716796875 2374.129638671875 2374.189208984375 2374.22802734375 2374.260009765625 2374.29833984375 2374.3115234375 2374.31201171875 2374.30419921875 2374.29345703125 2374.29443359375 2374.290771484375 2374.275146484375 2374.25830078125 2374.241455078125 2374.205078125 2374.183349609375 2374.174072265625 2374.16259765625 2374.162109375 2374.152099609375 2374.14111328125 2374.138427734375 2374.12744140625 2374.1259765625 2374.1171875 2374.098388671875 2374.09228515625 2374.055908203125
2374.61572265625 2374.60888671875 2374.596435546875 2374.573974609375 2374.55908203125 2374.534912109375 2374.5185546875 2374.5048828125 2374.491943359375 2374.4814453125 2374.47509765625 2374.473388671875 2374.474609375 2374.478271484375 2374.473388671875 2374.466796875 2374.46044921875 2374.457763671875 2374.4462890625 2374.427734375 2374.4072265625 2374.383056640625 2374.35791015625 2374.33740234375 2374.310791015625 2374.28955078125 2374.26416015625 2374.222900390625 2374.18505859375 2374.15234375 2374.113037109375 2374.093994140625 2374.068359375 2374.061279296875 2374.05322265625 2374.044921875 2374.044677734375 2374.044189453125 2374.03466796875 2374.025634765625 2374.013916015625 2374.01123046875 2374.00439453125 2373.99755859375 2373.98388671875 2373.968505859375 2373.95703125 2373.955810546875 2373.950927734375 2373.949462890625 2373.9482421875 2373.94775390625 2373.952392578125 2373.9541015625 2373.962158203125 2373.97509765625 2373.976806640625 2373.970458984375 2373.974609375 2373.9794921875 2373.97900390625 2373.980224609375 2373.99560546875 2374.00830078125 2374.02783203125 2374.059814453125 2374.104736328125 2374.1474609375 2374.189453125 2374.225830078125 2374.24755859375 2374.2802734375 2374.285888671875 2374.283447265625 2374.28076171875 2374.28369140625 2374.26611328125 2374.24755859375 2374.218017578125 2374.2001953125 2374.173095703125 2374.153564453125 2374.140380859375 2374.1337890625 2374.127685546875 2374.1201171875 2374.116455078125 2374.110107421875 2374.094970703125 2374.0888671875 2374.072021484375 2374.055908203125 2374.041748046875 2374.00634765625
2374.5869140625 2374.57763671875 2374.572021484375 2374.553955078125 2374.534423828125 2374.51904296875 2374.50537109375 2374.491455078125 2374.4755859375 2374.46875 2374.462158203125 2374.460693359375 2374.460693359375 2374.46044921875 2374.459228515625 2374.449462890625 2374.441650390625 2374.434326171875 2374.41162109375 2374.3916015625 2374.376220703125 2374.354248046875 2374.3330078125 2374.30859375 2374.28466796875 2374.26025390625 2374.238037109375 2374.200439453125 2374.15576171875 2374.10986328125 2374.091796875 2374.062744140625 2374.045654296875 2374.0419921875 2374.027099609375 2374.020263671875 2374.02001953125 2374.01904296875 2374.004638671875 2374.002197265625 2373.995361328125 2373.99267578125 2373.991455078125 2373.973876953125 2373.96240234375 2373.9501953125 2373.940185546875 2373.9375 2373.92724609375 2373.928466796875 2373.9296875 2373.9287109375 2373.93408203125 2373.935546875 2373.939453125 2373.940673828125 2373.939453125 2373.940673828125 2373.94970703125 2373.958984375 2373.96044921875 2373.96044921875 2373.969970703125 2373.9833984375 2374.002685546875 2374.029296875 2374.0751953125 2374.122802734375 2374.160400390625 2374.200439453125 2374.22705078125 2374.2529296875 2374.267333984375 2374.26953125 2374.268798828125 2374.259033203125 2374.244140625 2374.21630859375 2374.18701171875 2374.165283203125 2374.149169921875 2374.13623046875 2374.118408203125 2374.109375 2374.098876953125 2374.0986328125 2374.084716796875 2374.077392578125 2374.068603515625 2374.057861328125 2374.044189453125 2374.0263671875 2373.998779296875 2373.965576171875
2374.5625 2374.55078125 2374.548095703125 2374.53369140625 2374.519775390625 2374.5 2374.484375 2374.472900390625 2374.466064453125 2374.4541015625 2374.449462890625 2374.44873046875 2374.44873046875 2374.447998046875 2374.446533203125 2374.43701171875 2374.432861328125 2374.414306640625 2374.39306640625 2374.37548828125 2374.352294921875 2374.33349609375 2374.305419921875 2374.291015625 2374.26025390625 2374.2421875 2374.20654296875 2374.158203125 2374.110107421875 2374.080810546875 2374.056884765625 2374.0302734375 2374.0185546875 2374.01708984375 2374.0048828125 2374.00439453125 2373.998779296875 2373.987060546875 2373.975341796875 2373.9736328125 2373.971923828125 2373.970947265625 2373.970458984375 2373.9560546875 2373.935546875 2373.928466796875 2373.926513671875 2373.925048828125 2373.923095703125 2373.922607421875 2373.921630859375 2373.921142578125 2373.922119140625 2373.921875 2373.92138671875 2373.921142578125 2373.927978515625 2373.919921875 2373.920654296875 2373.921630859375 2373.921142578125 2373.930419921875 2373.94140625 2373.9541015625 2373.980712890625 2373.9990234375 2374.042724609375 2374.093994140625 2374.13330078125 2374.16845703125 2374.202880859375 2374.231201171875 2374.249267578125 2374.25732421875 2374.24755859375 2374.23681640625 2374.22607421875 2374.19921875 2374.166259765625 2374.14990234375 2374.133544921875 2374.114990234375 2374.10009765625 2374.071044921875 2374.060302734375 2374.06005859375 2374.043701171875 2374.029052734375 2374.0244140625 2374.001220703125 2373.987060546875 2373.98486328125 2373.94384765625 2373.91015625
2374.5439453125 2374.542724609375 2374.52294921875 2374.513916015625 2374.4921875 2374.483642578125 2374.470703125 2374.465087890625 2374.445068359375 2374.439208984375 2374.437744140625 2374.446044921875 2374.443115234375 2374.43603515625 2374.434326171875 2374.431884765625 2374.4169921875 2374.388671875 2374.374755859375 2374.3525390625 2374.335693359375 2374.3046875 2374.291259765625 2374.263671875 2374.24169921875 2374.20361328125 2374.15283203125 2374.104248046875 2374.069091796875 2374.015625 2374.01171875 2373.9990234375 2373.986083984375 2373.98193359375 2373.9736328125 2373.97265625 2373.970947265625 2373.970458984375 2373.968505859375 2373.966796875 2373.962158203125 2373.957275390625 2373.94677734375 2373.92724609375 2373.92529296875 2373.9189453125 2373.9140625 2373.9140625 2373.91259765625 2373.91162109375 2373.9052734375 2373.90869140625 2373.908447265625 2373.90478515625 2373.897705078125 2373.904052734375 2373.90625 2373.894287109375 2373.886962890625 2373.885986328125 2373.89404296875 2373.90625 2373.91650390625 2373.9228515625 2373.94482421875 2373.9716796875 2373.9990234375 2374.050048828125 2374.090087890625 2374.136962890625 2374.159423828125 2374.1982421875 2374.216064453125 2374.230712890625 2374.233154296875 2374.2275390625 2374.203125 2374.18505859375 2374.161865234375 2374.13720703125 2374.120849609375 2374.094482421875 2374.068359375 2374.042724609375 2374.0283203125 2374.0068359375 2373.989501953125 2373.9873046875 2373.963623046875 2373.942138671875 2373.9287109375 2373.900634765625 2373.882568359375 2373.871826171875
2374.508056640625 2374.50634765625 2374.494873046875 2374.485595703125 2374.478515625 2374.4619140625 2374.455078125 2374.4404296875 2374.43798828125 2374.433349609375 2374.423583984375 2374.4306640625 2374.42529296875 2374.426513671875 2374.42041015625 2374.40576171875 2374.392578125 2374.379150390625 2374.355224609375 2374.328857421875 2374.302490234375 2374.281494140625 2374.26171875 2374.2294921875 2374.188720703125 2374.136962890625 2374.085205078125 2374.0595703125 2374.015625 2373.990478515625 2373.983642578125 2373.970703125 2373.96337890625 2373.955322265625 2373.9609375 2373.96044921875 2373.95556640625 2373.954345703125 2373.9443359375 2373.936767578125 2373.93603515625 2373.93505859375 2373.927490234375 2373.922119140625 2373.913330078125 2373.908447265625 2373.905029296875 2373.91064453125 2373.90380859375 2373.90283203125 2373.902099609375 2373.8896484375 2373.887451171875 2373.88671875 2373.882080078125 2373.876220703125 2373.881103515625 2373.881103515625 2373.878662109375 2373.8720703125 2373.875732421875 2373.885009765625 2373.885009765625 2373.894287109375 2373.908935546875 2373.935302734375 2373.96728515625 2374.010009765625 2374.05810546875 2374.08642578125 2374.127685546875 2374.172119140625 2374.19482421875 2374.198974609375 2374.207763671875 2374.204833984375 2374.1875 2374.173828125 2374.147216796875 2374.12744140625 2374.104248046875 2374.07421875 2374.041748046875 2374.011474609375 2373.985595703125 2373.973876953125 2373.951904296875 2373.932373046875 2373.90478515625 2373.890625 2373.87353515625 2373.85595703125 2373.835693359375 2373.820068359375
2374.482421875 2374.470703125 2374.463134765625 2374.457275390625 2374.4541015625 2374.444091796875 2374.440673828125 2374.429443359375 2374.423095703125 2374.40966796875 2374.40283203125 2374.40625 2374.4072265625 2374.41064453125 2374.403076171875 2374.39892578125 2374.38671875 2374.36328125 2374.3369140625 2374.304931640625 2374.27734375 2374.2529296875 2374.22314453125 2374.182861328125 2374.134521484375 2374.070068359375 2374.03857421875 2374.009521484375 2373.98486328125 2373.97119140625 2373.958251953125 2373.946533203125 2373.943115234375 2373.933837890625 2373.927734375 2373.93115234375 2373.930908203125 2373.933837890625 2373.929931640625 2373.92822265625 2373.923583984375 2373.9228515625 2373.921630859375 2373.910400390625 2373.904296875 2373.903076171875 2373.904296875 2373.904296875 2373.903564453125 2373.90283203125 2373.898193359375 2373.882568359375 2373.879638671875 2373.87451171875 2373.8701171875 2373.85986328125 2373.85693359375 2373.850830078125 2373.847900390625 2373.844970703125 2373.83984375 2373.847900390625 2373.8515625 2373.864013671875 2373.883544921875 2373.908447265625 2373.94091796875 2373.97265625 2374.008056640625 2374.0546875 2374.08349609375 2374.130859375 2374.162353515625 2374.1728515625 2374.17822265625 2374.17919921875 2374.162109375 2374.14990234375 2374.1318359375 2374.110595703125 2374.08251953125 2374.05615234375 2374.0185546875 2373.98828125 2373.955322265625 2373.938720703125 2373.9033203125 2373.884033203125 2373.86474609375 2373.843017578125 2373.82373046875 2373.802001953125 2373.787841796875 2373.778564453125
2374.452392578125 2374.441650390625 2374.445068359375 2374.42578125 2374.419189453125 2374.418212890625 2374.4111328125 2374.40478515625 2374.40185546875 2374.39794921875 2374.397216796875 2374.396484375 2374.39697265625 2374.398193359375 2374.3955078125 2374.3876953125 2374.373779296875 2374.34619140625 2374.318603515625 2374.28173828125 2374.252685546875 2374.2216796875 2374.174560546875 2374.129638671875 2374.074951171875 2374.03076171875 2373.99658203125 2373.96044921875 2373.94677734375 2373.942626953125 2373.924072265625 2373.916015625 2373.9111328125 2373.916748046875 2373.914794921875 2373.90869140625 2373.898193359375 2373.911376953125 2373.922119140625 2373.9208984375 2373.915283203125 2373.9052734375 2373.90234375 2373.899169921875 2373.897216796875 2373.89697265625 2373.90283203125 2373.904052734375 2373.903564453125 2373.8994140625 2373.8876953125 2373.881103515625 2373.87109375 2373.859375 2373.851806640625 2373.842041015625 2373.83251953125 2373.829345703125 2373.8251953125 2373.81982421875 2373.817138671875 2373.827392578125 2373.8349609375 2373.848388671875 2373.869384765625 2373.887939453125 2373.906494140625 2373.939697265625 2373.96337890625 2374.002197265625 2374.051513671875 2374.0869140625 2374.11865234375 2374.1376953125 2374.15576171875 2374.15478515625 2374.144775390625 2374.1318359375 2374.108642578125 2374.0888671875 2374.065185546875 2374.0302734375 2373.9892578125 2373.935546875 2373.9140625 2373.883056640625 2373.84765625 2373.836181640625 2373.82568359375 2373.80712890625 2373.78564453125 2373.75732421875 2373.741455078125 2373.734619140625
2374.4345703125 2374.425537109375 2374.403564453125 2374.399658203125 2374.395751953125 2374.394287109375 2374.399169921875 2374.388427734375 2374.37890625 2374.37255859375 2374.367919921875 2374.367919921875 2374.36669921875 2374.3662109375 2374.3720703125 2374.3740234375 2374.352294921875 2374.331787109375 2374.29931640625 2374.249267578125 2374.207275390625 2374.169189453125 2374.127197265625 2374.09033203125 2374.035888671875 2373.995849609375 2373.96240234375 2373.9306640625 2373.908935546875 2373.896240234375 2373.887939453125 2373.89404296875 2373.893310546875 2373.892822265625 2373.882568359375 2373.881591796875 2373.88623046875 2373.890380859375 2373.890869140625 2373.899658203125 2373.89453125 2373.89453125 2373.888427734375 2373.896240234375 2373.8955078125 2373.89501953125 2373.8955078125 2373.903564453125 2373.89404296875 2373.888427734375 2373.88232421875 2373.863525390625 2373.858642578125 2373.84619140625 2373.83935546875 2373.829833984375 2373.8173828125 2373.813720703125 2373.80126953125 2373.79541015625 2373.794189453125 2373.794189453125 2373.804443359375 2373.82861328125 2373.841552734375 2373.863525390625 2373.88525390625 2373.906982421875 2373.943115234375 2373.97119140625 2374.009033203125 2374.054443359375 2374.09130859375 2374.1123046875 2374.123046875 2374.122802734375 2374.117919921875 2374.097900390625 2374.08984375 2374.075439453125 2374.033935546875 2373.9951171875 2373.937255859375 2373.90380859375 2373.87744140625 2373.8466796875 2373.82275390625 2373.800537109375 2373.79541015625 2373.7763671875 2373.75244140625 2373.726318359375 2373.723388671875 2373.690673828125
2374.408935546875 2374.39697265625 2374.3857421875 2374.375 2374.365966796875 2374.36279296875 2374.35400390625 2374.34423828125 2374.345703125 2374.3505859375 2374.3505859375 2374.350341796875 2374.351318359375 2374.35009765625 2374.34912109375 2374.347412109375 2374.330810546875 2374.294921875 2374.251953125 2374.2001953125 2374.160400390625 2374.122314453125 2374.08935546875 2374.05029296875 2374.01513671875 2373.96337890625 2373.9423828125 2373.907958984375 2373.892333984375 2373.882568359375 2373.86962890625 2373.86376953125 2373.860107421875 2373.859619140625 2373.8525390625 2373.857666015625 2373.86083984375 2373.87158203125 2373.875244140625 2373.874755859375 2373.8740234375 2373.87353515625 2373.876953125 2373.8779296875 2373.8857421875 2373.8857421875 2373.891357421875 2373.89208984375 2373.888916015625 2373.8798828125 2373.865234375 2373.849365234375 2373.83984375 2373.8310546875 2373.81640625 2373.807373046875 2373.797119140625 2373.79541015625 2373.790283203125 2373.783203125 2373.780517578125 2373.780029296875 2373.78271484375 2373.797607421875 2373.825927734375 2373.85009765625 2373.86328125 2373.884033203125 2373.9091796875 2373.947021484375 2373.974609375 2374.0244140625 2374.05517578125 2374.077880859375 2374.096923828125 2374.10400390625 2374.095458984375 2374.0791015625 2374.071533203125 2374.041259765625 2374.007080078125 2373.95068359375 2373.9072265625 2373.87353515625 2373.83203125 2373.801513671875 2373.77685546875 2373.755126953125 2373.74755859375 2373.72412109375 2373.716552734375 2373.701416015625 2373.684326171875 2373.6669921875
2374.378173828125 2374.36083984375 2374.349365234375 2374.34619140625 2374.3349609375 2374.32373046875 2374.320068359375 2374.31494140625 2374.311279296875 2374.31103515625 2374.316162109375 2374.31689453125 2374.321044921875 2374.319091796875 2374.30859375 2374.302001953125 2374.28173828125 2374.245361328125 2374.201171875 2374.160400390625 2374.12255859375 2374.090087890625 2374.058837890625 2374.02001953125 2373.974609375 2373.937255859375 2373.913818359375 2373.89599609375 2373.871826171875 2373.861083984375 2373.843505859375 2373.8369140625 2373.842041015625 2373.843505859375 2373.842041015625 2373.835693359375 2373.831787109375 2373.84228515625 2373.854248046875 2373.854248046875 2373.853759765625 2373.85595703125 2373.86767578125 2373.876953125 2373.881591796875 2373.8837890625 2373.88525390625 2373.88427734375 2373.876708984375 2373.863525390625 2373.8505859375 2373.841064453125 2373.83447265625 2373.820068359375 2373.802978515625 2373.79736328125 2373.7919921875 2373.78369140625 2373.766357421875 2373.760009765625 2373.759765625 2373.759765625 2373.76953125 2373.777587890625 2373.803955078125 2373.83349609375 2373.83837890625 2373.860595703125 2373.88818359375 2373.926025390625 2373.952392578125 2373.994384765625 2374.02783203125 2374.0517578125 2374.0595703125 2374.0673828125 2374.064453125 2374.05224609375 2374.03173828125 2374.011474609375 2373.97412109375 2373.920166015625 2373.884033203125 2373.832763671875 2373.80078125 2373.77197265625 2373.746337890625 2373.7255859375 2373.710693359375 2373.685791015625 2373.673095703125 2373.66552734375 2373.647705078125 2373.64111328125
2374.341552734375 2374.333740234375 2374.3251953125 2374.31884765625 2374.316650390625 2374.30126953125 2374.29541015625 2374.284912109375 2374.2841796875 2374.28759765625 2374.292236328125 2374.28564453125 2374.28515625 2374.28466796875 2374.262939453125 2374.252685546875 2374.232421875 2374.197265625 2374.152587890625 2374.12158203125 2374.091796875 2374.05859375 2374.0302734375 2373.9912109375 2373.943115234375 2373.91259765625 2373.887939453125 2373.870849609375 2373.852783203125 2373.83056640625 2373.82421875 2373.81787109375 2373.819091796875 2373.818359375 2373.810791015625 2373.8095703125 2373.813232421875 2373.818115234375 2373.8232421875 2373.833740234375 2373.847412109375 2373.849609375 2373.8505859375 2373.865234375 2373.875732421875 2373.87744140625 2373.87841796875 2373.870849609375 2373.859619140625 2373.851318359375 2373.84228515625 2373.834228515625 2373.822021484375 2373.80810546875 2373.79833984375 2373.792236328125 2373.779541015625 2373.76220703125 2373.7568359375 2373.750244140625 2373.74169921875 2373.740234375 2373.748291015625 2373.763427734375 2373.7822265625 2373.80224609375 2373.813232421875 2373.836181640625 2373.859130859375 2373.895263671875 2373.922119140625 2373.975830078125 2374.009033203125 2374.02880859375 2374.034912109375 2374.041748046875 2374.039306640625 2374.0185546875 2374 2373.97998046875 2373.938720703125 2373.891845703125 2373.84423828125 2373.794921875 2373.765380859375 2373.73828125 2373.713134765625 2373.7001953125 2373.687255859375 2373.664306640625 2373.64892578125 2373.6357421875 2373.62255859375 2373.61767578125
2374.314697265625 2374.299560546875 2374.295166015625 2374.284912109375 2374.2841796875 2374.274658203125 2374.270751953125 2374.268310546875 2374.267578125 2374.26806640625 2374.26806640625 2374.265380859375 2374.239501953125 2374.238525390625 2374.22900390625 2374.216552734375 2374.18212890625 2374.1435546875 2374.110107421875 2374.090576171875 2374.050048828125 2374.0205078125 2373.98828125 2373.954833984375 2373.91455078125 2373.879638671875 2373.8603515625 2373.8515625 2373.82470703125 2373.8154296875 2373.814208984375 2373.807861328125 2373.797119140625 2373.79345703125 2373.790283203125 2373.78271484375 2373.787841796875 2373.7978515625 2373.799560546875 2373.805908203125 2373.821533203125 2373.8330078125 2373.845703125 2373.850830078125 2373.8671875 2373.8671875 2373.865966796875 2373.85498046875 2373.850830078125 2373.83935546875 2373.82763671875 2373.814453125 2373.81005859375 2373.800048828125 2373.793212890625 2373.77392578125 2373.767333984375 2373.753662109375 2373.74267578125 2373.729736328125 2373.716796875 2373.7158203125 2373.719970703125 2373.7373046875 2373.767333984375 2373.774658203125 2373.78857421875 2373.812744140625 2373.836181640625 2373.870361328125 2373.89794921875 2373.94580078125 2373.976806640625 2374.0078125 2374.013427734375 2374.009033203125 2373.9951171875 2373.985595703125 2373.964111328125 2373.93798828125 2373.8955078125 2373.8505859375 2373.796875 2373.74560546875 2373.726806640625 2373.69384765625 2373.674560546875 2373.661865234375 2373.657470703125 2373.6455078125 2373.633056640625 2373.615478515625 2373.610595703125 2373.602294921875
2374.299072265625 2374.28125 2374.2685546875 2374.265380859375 2374.257080078125 2374.249755859375 2374.245849609375 2374.244384765625 2374.235595703125 2374.234130859375 2374.233154296875 2374.23095703125 2374.2216796875 2374.21533203125 2374.2080078125 2374.1796875 2374.141845703125 2374.104736328125 2374.078857421875 2374.050048828125 2374.020263671875 2373.97998046875 2373.94482421875 2373.917236328125 2373.880615234375 2373.857421875 2373.8515625 2373.826904296875 2373.81298828125 2373.7939453125 2373.78857421875 2373.77734375 2373.7705078125 2373.768798828125 2373.76806640625 2373.76708984375 2373.76708984375 2373.782470703125 2373.786865234375 2373.7958984375 2373.80517578125 2373.822265625 2373.83447265625 2373.846923828125 2373.85498046875 2373.860107421875 2373.856201171875 2373.843994140625 2373.83984375 2373.8271484375 2373.814697265625 2373.809326171875 2373.79833984375 2373.78857421875 2373.775390625 2373.759521484375 2373.75439453125 2373.73828125 2373.71923828125 2373.712890625 2373.70361328125 2373.70068359375 2373.7041015625 2373.7216796875 2373.738525390625 2373.7509765625 2373.779052734375 2373.788818359375 2373.812255859375 2373.837158203125 2373.85693359375 2373.914306640625 2373.928466796875 2373.943603515625 2373.958984375 2373.968017578125 2373.963134765625 2373.955078125 2373.93505859375 2373.89501953125 2373.84423828125 2373.799560546875 2373.747802734375 2373.7265625 2373.690673828125 2373.670166015625 2373.649658203125 2373.642822265625 2373.640380859375 2373.6259765625 2373.612060546875 2373.60205078125 2373.58984375 2373.57958984375
2374.276611328125 2374.255126953125 2374.247314453125 2374.244873046875 2374.23583984375 2374.229736328125 2374.21875 2374.21826171875 2374.21728515625 2374.212158203125 2374.21142578125 2374.20068359375 2374.19580078125 2374.18505859375 2374.16796875 2374.142822265625 2374.098876953125 2374.066162109375 2374.046875 2374.0224609375 2373.976806640625 2373.944580078125 2373.919921875 2373.892822265625 2373.87353515625 2373.85205078125 2373.82958984375 2373.8134765625 2373.7978515625 2373.786865234375 2373.76953125 2373.76708984375 2373.753173828125 2373.74462890625 2373.743408203125 2373.742919921875 2373.744384765625 2373.756103515625 2373.764892578125 2373.77490234375 2373.783447265625 2373.79931640625 2373.81884765625 2373.83154296875 2373.840576171875 2373.84619140625 2373.842529296875 2373.833984375 2373.824951171875 2373.815673828125 2373.809326171875 2373.79833984375 2373.78955078125 2373.77880859375 2373.7607421875 2373.75244140625 2373.730224609375 2373.71142578125 2373.708251953125 2373.7021484375 2373.6904296875 2373.68798828125 2373.688720703125 2373.707275390625 2373.72216796875 2373.73828125 2373.759765625 2373.772216796875 2373.791015625 2373.818603515625 2373.842529296875 2373.871826171875 2373.898681640625 2373.911865234375 2373.930419921875 2373.93994140625 2373.931884765625 2373.907470703125 2373.883056640625 2373.842529296875 2373.805908203125 2373.754638671875 2373.724853515625 2373.692138671875 2373.662353515625 2373.643310546875 2373.61767578125 2373.61181640625 2373.611328125 2373.60986328125 2373.60009765625 2373.580810546875 2373.57080078125 2373.56591796875
2374.24853515625 2374.240966796875 2374.234619140625 2374.223388671875 2374.212646484375 2374.198486328125 2374.19189453125 2374.18603515625 2374.191162109375 2374.194580078125 2374.180908203125 2374.17236328125 2374.16015625 2374.1435546875 2374.117919921875 2374.089111328125 2374.053955078125 2374.028076171875 2374.005126953125 2373.985595703125 2373.93701171875 2373.925537109375 2373.898193359375 2373.874755859375 2373.859375 2373.8291015625 2373.814453125 2373.804443359375 2373.78662109375 2373.7626953125 2373.75439453125 2373.743896484375 2373.7333984375 2373.724853515625 2373.718994140625 2373.72314453125 2373.7255859375 2373.731689453125 2373.7412109375 2373.754638671875 2373.7685546875 2373.781005859375 2373.79931640625 2373.810791015625 2373.816162109375 2373.82177734375 2373.823486328125 2373.81298828125 2373.807861328125 2373.806396484375 2373.799072265625 2373.785888671875 2373.782470703125 2373.76513671875 2373.7548828125 2373.7314453125 2373.710693359375 2373.697509765625 2373.686767578125 2373.6826171875 2373.677490234375 2373.67626953125 2373.676025390625 2373.68994140625 2373.708740234375 2373.725830078125 2373.748779296875 2373.764892578125 2373.78369140625 2373.799072265625 2373.830322265625 2373.8447265625 2373.865478515625 2373.88134765625 2373.898193359375 2373.902587890625 2373.890625 2373.868408203125 2373.837646484375 2373.8056640625 2373.77294921875 2373.72802734375 2373.694580078125 2373.66796875 2373.63671875 2373.614013671875 2373.59765625 2373.593505859375 2373.58740234375 2373.5869140625 2373.578125 2373.56689453125 2373.565185546875 2373.54736328125
2374.203857421875 2374.200927734375 2374.19140625 2374.178466796875 2374.175048828125 2374.166748046875 2374.16357421875 2374.160400390625 2374.16064453125 2374.16162109375 2374.148681640625 2374.144775390625 2374.128662109375 2374.09130859375 2374.060791015625 2374.03759765625 2373.9990234375 2373.97021484375 2373.95361328125 2373.9365234375 2373.9169921875 2373.89990234375 2373.871826171875 2373.855712890625 2373.8369140625 2373.815673828125 2373.80517578125 2373.787353515625 2373.7626953125 2373.745849609375 2373.7353515625 2373.72412109375 2373.70849609375 2373.704345703125 2373.701171875 2373.703125 2373.71142578125 2373.719482421875 2373.719970703125 2373.72998046875 2373.73876953125 2373.76123046875 2373.779541015625 2373.7978515625 2373.7978515625 2373.798583984375 2373.804443359375 2373.798583984375 2373.80078125 2373.794189453125 2373.781982421875 2373.7666015625 2373.764404296875 2373.759033203125 2373.7392578125 2373.7119140625 2373.697509765625 2373.6845703125 2373.671875 2373.660400390625 2373.657470703125 2373.656494140625 2373.658935546875 2373.670654296875 2373.697509765625 2373.71337890625 2373.745361328125 2373.761474609375 2373.781494140625 2373.79248046875 2373.80810546875 2373.83447265625 2373.84228515625 2373.857421875 2373.86572265625 2373.864013671875 2373.84814453125 2373.832763671875 2373.8046875 2373.768310546875 2373.7373046875 2373.698486328125 2373.66845703125 2373.65087890625 2373.614990234375 2373.592041015625 2373.572998046875 2373.56884765625 2373.56591796875 2373.5654296875 2373.56494140625 2373.555908203125 2373.544677734375 2373.52392578125
2374.13916015625 2374.130126953125 2374.12890625 2374.118408203125 2374.118408203125 2374.1171875 2374.116943359375 2374.114990234375 2374.10498046875 2374.10498046875 2374.103759765625 2374.083251953125 2374.067138671875 2374.040771484375 2374.022216796875 2373.990234375 2373.943115234375 2373.915771484375 2373.908447265625 2373.895751953125 2373.8828125 2373.869873046875 2373.85595703125 2373.83544921875 2373.827880859375 2373.8056640625 2373.7890625 2373.76953125 2373.748291015625 2373.732666015625 2373.71044921875 2373.69677734375 2373.6904296875 2373.689697265625 2373.689453125 2373.688720703125 2373.69384765625 2373.697509765625 2373.69677734375 2373.7041015625 2373.725830078125 2373.73291015625 2373.75390625 2373.765869140625 2373.7724609375 2373.7841796875 2373.784423828125 2373.77392578125 2373.780517578125 2373.76806640625 2373.761474609375 2373.76025390625 2373.756591796875 2373.732421875 2373.7119140625 2373.691162109375 2373.676513671875 2373.671875 2373.658935546875 2373.646240234375 2373.63427734375 2373.631591796875 2373.638427734375 2373.661865234375 2373.671142578125 2373.7109375 2373.745361328125 2373.760498046875 2373.774169921875 2373.7890625 2373.80224609375 2373.822998046875 2373.829345703125 2373.837158203125 2373.839111328125 2373.828369140625 2373.81787109375 2373.79248046875 2373.766357421875 2373.731689453125 2373.705810546875 2373.673583984375 2373.651611328125 2373.618408203125 2373.592041015625 2373.57177734375 2373.55810546875 2373.545654296875 2373.5439453125 2373.54296875 2373.53662109375 2373.53173828125 2373.51123046875 2373.499755859375
2374.102294921875 2374.078369140625 2374.069091796875 2374.07080078125 2374.072021484375 2374.072509765625 2374.066650390625 2374.07470703125 2374.069091796875 2374.059326171875 2374.050048828125 2374.0224609375 2374.009765625 2373.98681640625 2373.9736328125 2373.9404296875 2373.9072265625 2373.895751953125 2373.88720703125 2373.8798828125 2373.864990234375 2373.85400390625 2373.8369140625 2373.8212890625 2373.81640625 2373.791748046875 2373.773681640625 2373.753662109375 2373.734375 2373.70849609375 2373.691650390625 2373.688232421875 2373.68408203125 2373.6669921875 2373.664306640625 2373.6689453125 2373.678466796875 2373.68212890625 2373.68017578125 2373.682373046875 2373.691650390625 2373.704345703125 2373.721923828125 2373.7353515625 2373.752197265625 2373.759033203125 2373.759521484375 2373.759521484375 2373.759765625 2373.757568359375 2373.753173828125 2373.73046875 2373.724853515625 2373.7119140625 2373.696044921875 2373.676025390625 2373.660400390625 2373.654052734375 2373.64013671875 2373.632080078125 2373.629150390625 2373.622314453125 2373.628662109375 2373.64013671875 2373.66259765625 2373.67919921875 2373.729736328125 2373.751220703125 2373.764404296875 2373.7841796875 2373.791259765625 2373.803955078125 2373.822021484375 2373.82470703125 2373.82177734375 2373.8037109375 2373.790771484375 2373.7724609375 2373.740966796875 2373.707275390625 2373.687744140625 2373.654296875 2373.6240234375 2373.60986328125 2373.580078125 2373.55517578125 2373.54296875 2373.541259765625 2373.531494140625 2373.529541015625 2373.52197265625 2373.502685546875 2373.4951171875 2373.478515625
2374.052001953125 2374.041748046875 2374.01904296875 2374.018798828125 2374.017822265625 2374.010986328125 2374.00830078125 2374.014404296875 2374.01171875 2373.988525390625 2373.975830078125 2373.955810546875 2373.93701171875 2373.9326171875 2373.916259765625 2373.89013671875 2373.871826171875 2373.864990234375 2373.854248046875 2373.850341796875 2373.832763671875 2373.830322265625 2373.822265625 2373.812744140625 2373.80029296875 2373.78076171875 2373.758056640625 2373.734619140625 2373.71826171875 2373.692138671875 2373.681884765625 2373.667724609375 2373.655517578125 2373.645751953125 2373.6455078125 2373.6533203125 2373.653076171875 2373.653564453125 2373.65185546875 2373.6533203125 2373.666259765625 2373.677978515625 2373.700439453125 2373.719970703125 2373.723388671875 2373.732421875 2373.734619140625 2373.73486328125 2373.742431640625 2373.733154296875 2373.72216796875 2373.7197265625 2373.703369140625 2373.683349609375 2373.67431640625 2373.65625 2373.6396484375 2373.628662109375 2373.6220703125 2373.614013671875 2373.61279296875 2373.612548828125 2373.615234375 2373.62939453125 2373.64404296875 2373.67041015625 2373.698974609375 2373.728271484375 2373.74951171875 2373.7607421875 2373.7822265625 2373.79150390625 2373.8037109375 2373.80517578125 2373.793212890625 2373.78369140625 2373.76025390625 2373.738037109375 2373.70751953125 2373.682861328125 2373.665771484375 2373.633544921875 2373.60546875 2373.577392578125 2373.563720703125 2373.54248046875 2373.531982421875 2373.525390625 2373.517333984375 2373.507080078125 2373.497314453125 2373.48388671875 2373.474609375 2373.463623046875
2373.9716796875 2373.970703125 2373.94970703125 2373.942626953125 2373.942138671875 2373.93603515625 2373.93359375 2373.93994140625 2373.941162109375 2373.933837890625 2373.91650390625 2373.901123046875 2373.881103515625 2373.8740234375 2373.85009765625 2373.8388671875 2373.834716796875 2373.832275390625 2373.8291015625 2373.8251953125 2373.81396484375 2373.813232421875 2373.806640625 2373.7939453125 2373.7822265625 2373.767578125 2373.741455078125 2373.718017578125 2373.699951171875 2373.6787109375 2373.657470703125 2373.649169921875 2373.638427734375 2373.626953125 2373.630859375 2373.6259765625 2373.624755859375 2373.6240234375 2373.626708984375 2373.6328125 2373.6416015625 2373.653076171875 2373.6640625 2373.689453125 2373.70166015625 2373.70361328125 2373.6982421875 2373.70263671875 2373.706298828125 2373.707763671875 2373.698486328125 2373.69384765625 2373.6748046875 2373.666259765625 2373.649169921875 2373.631591796875 2373.627197265625 2373.60400390625 2373.600341796875 2373.599365234375 2373.595458984375 2373.595703125 2373.60302734375 2373.61328125 2373.63037109375 2373.6572265625 2373.6806640625 2373.712646484375 2373.728271484375 2373.741943359375 2373.75927734375 2373.778564453125 2373.7841796875 2373.784912109375 2373.7802734375 2373.759765625 2373.73779296875 2373.7080078125 2373.681640625 2373.658935546875 2373.645263671875 2373.623046875 2373.58642578125 2373.5703125 2373.540283203125 2373.5244140625 2373.517578125 2373.50830078125 2373.497314453125 2373.48486328125 2373.47509765625 2373.459228515625 2373.4560546875 2373.43798828125
2373.917724609375 2373.90966796875 2373.90625 2373.88671875 2373.882080078125 2373.876708984375 2373.876708984375 2373.87548828125 2373.8642578125 2373.8583984375 2373.85546875 2373.83544921875 2373.822998046875 2373.81689453125 2373.81396484375 2373.814697265625 2373.815185546875 2373.807861328125 2373.79541015625 2373.787841796875 2373.783935546875 2373.78369140625 2373.78173828125 2373.779541015625 2373.76953125 2373.7470703125 2373.7294921875 2373.703857421875 2373.67919921875 2373.662841796875 2373.64013671875 2373.628662109375 2373.614990234375 2373.610107421875 2373.610107421875 2373.607666015625 2373.607177734375 2373.607666015625 2373.597900390625 2373.607177734375 2373.6083984375 2373.615478515625 2373.63427734375 2373.647216796875 2373.65283203125 2373.65771484375 2373.656494140625 2373.665283203125 2373.675537109375 2373.6826171875 2373.68017578125 2373.6630859375 2373.6494140625 2373.636962890625 2373.623046875 2373.603271484375 2373.597900390625 2373.576416015625 2373.575927734375 2373.57470703125 2373.573486328125 2373.5751953125 2373.586181640625 2373.597412109375 2373.623779296875 2373.632568359375 2373.651123046875 2373.68701171875 2373.7080078125 2373.720703125 2373.741943359375 2373.751708984375 2373.75244140625 2373.752197265625 2373.75 2373.724853515625 2373.70751953125 2373.685302734375 2373.6572265625 2373.642333984375 2373.62841796875 2373.6044921875 2373.574462890625 2373.54052734375 2373.531005859375 2373.50732421875 2373.49658203125 2373.486572265625 2373.4658203125 2373.4580078125 2373.444580078125 2373.44140625 2373.431396484375 2373.408935546875
2373.880859375 2373.87255859375 2373.851318359375 2373.847900390625 2373.839599609375 2373.837890625 2373.826904296875 2373.82568359375 2373.82177734375 2373.81396484375 2373.78955078125 2373.783203125 2373.78857421875 2373.781494140625 2373.77490234375 2373.771484375 2373.76806640625 2373.760009765625 2373.7587890625 2373.758056640625 2373.75830078125 2373.7578125 2373.757568359375 2373.7568359375 2373.74658203125 2373.734619140625 2373.72265625 2373.68505859375 2373.663330078125 2373.640380859375 2373.629150390625 2373.619140625 2373.608154296875 2373.5986328125 2373.59326171875 2373.575439453125 2373.57421875 2373.572998046875 2373.572265625 2373.5712890625 2373.57177734375 2373.5849609375 2373.598876953125 2373.60205078125 2373.60205078125 2373.617431640625 2373.63671875 2373.6396484375 2373.6484375 2373.6484375 2373.647705078125 2373.6455078125 2373.62548828125 2373.60888671875 2373.595947265625 2373.59326171875 2373.572998046875 2373.566650390625 2373.5517578125 2373.55078125 2373.55078125 2373.55126953125 2373.56591796875 2373.578125 2373.586669921875 2373.616943359375 2373.63623046875 2373.66259765625 2373.6875 2373.705078125 2373.7080078125 2373.715576171875 2373.716552734375 2373.71630859375 2373.703125 2373.68896484375 2373.673583984375 2373.65869140625 2373.649658203125 2373.621337890625 2373.607666015625 2373.58056640625 2373.55322265625 2373.533447265625 2373.498779296875 2373.482421875 2373.468017578125 2373.453125 2373.44091796875 2373.435791015625 2373.433837890625 2373.421875 2373.3974609375 2373.392822265625
2373.83544921875 2373.82470703125 2373.81982421875 2373.82177734375 2373.81201171875 2373.801513671875 2373.787109375 2373.784912109375 2373.77783203125 2373.764892578125 2373.751953125 2373.7421875 2373.7431640625 2373.74755859375 2373.7470703125 2373.746826171875 2373.73486328125 2373.72900390625 2373.727783203125 2373.727294921875 2373.730224609375 2373.73291015625 2373.737060546875 2373.734375 2373.73046875 2373.709228515625 2373.6962890625 2373.670654296875 2373.645751953125 2373.624755859375 2373.6103515625 2373.603271484375 2373.591064453125 2373.582763671875 2373.560791015625 2373.553955078125 2373.546875 2373.54052734375 2373.541748046875 2373.541259765625 2373.548095703125 2373.555419921875 2373.558837890625 2373.58154296875 2373.59326171875 2373.59521484375 2373.60498046875 2373.614013671875 2373.621337890625 2373.623291015625 2373.622314453125 2373.6123046875 2373.60888671875 2373.593994140625 2373.58740234375 2373.573974609375 2373.560791015625 2373.547607421875 2373.539306640625 2373.53857421875 2373.543701171875 2373.53857421875 2373.54736328125 2373.554931640625 2373.5693359375 2373.58642578125 2373.620361328125 2373.640625 2373.654541015625 2373.670654296875 2373.681640625 2373.68603515625 2373.69482421875 2373.694091796875 2373.671875 2373.66845703125 2373.66162109375 2373.6416015625 2373.623291015625 2373.607177734375 2373.5830078125 2373.552734375 2373.529052734375 2373.4990234375 2373.474365234375 2373.456787109375 2373.439208984375 2373.4326171875 2373.423828125 2373.4150390625 2373.404541015625 2373.391357421875 2373.381591796875 2373.36328125
2373.79638671875 2373.78076171875 2373.7763671875 2373.783935546875 2373.779541015625 2373.77197265625 2373.763671875 2373.761474609375 2373.75244140625 2373.74267578125 2373.7275390625 2373.724365234375 2373.721923828125 2373.717529296875 2373.716552734375 2373.71630859375 2373.70947265625 2373.7001953125 2373.69677734375 2373.69384765625 2373.698486328125 2373.707763671875 2373.709716796875 2373.708251953125 2373.7060546875 2373.68896484375 2373.671630859375 2373.65283203125 2373.630615234375 2373.610107421875 2373.5966796875 2373.583740234375 2373.5673828125 2373.556884765625 2373.539794921875 2373.529052734375 2373.525390625 2373.52490234375 2373.52880859375 2373.524658203125 2373.529541015625 2373.5302734375 2373.540283203125 2373.552734375 2373.564208984375 2373.5703125 2373.577392578125 2373.594482421875 2373.5966796875 2373.603515625 2373.60302734375 2373.593505859375 2373.585205078125 2373.576904296875 2373.564208984375 2373.55078125 2373.542724609375 2373.525146484375 2373.520751953125 2373.5205078125 2373.52001953125 2373.519775390625 2373.522216796875 2373.531005859375 2373.544921875 2373.5634765625 2373.587646484375 2373.609375 2373.620849609375 2373.635498046875 2373.647216796875 2373.65283203125 2373.656005859375 2373.6513671875 2373.649658203125 2373.647705078125 2373.640380859375 2373.623046875 2373.606689453125 2373.57421875 2373.556396484375 2373.52783203125 2373.50048828125 2373.474853515625 2373.44921875 2373.42529296875 2373.406494140625 2373.391357421875 2373.3896484375 2373.383544921875 2373.37353515625 2373.365478515625 2373.3515625 2373.33935546875
2373.75830078125 2373.75390625 2373.745849609375 2373.74560546875 2373.7392578125 2373.7373046875 2373.72705078125 2373.72509765625 2373.72314453125 2373.720458984375 2373.710205078125 2373.70703125 2373.6982421875 2373.69580078125 2373.689453125 2373.6865234375 2373.6845703125 2373.67724609375 2373.67529296875 2373.667236328125 2373.66552734375 2373.669677734375 2373.677978515625 2373.681640625 2373.667236328125 2373.660888671875 2373.645263671875 2373.62841796875 2373.60205078125 2373.580078125 2373.57177734375 2373.5615234375 2373.548583984375 2373.533203125 2373.527099609375 2373.515625 2373.51025390625 2373.510009765625 2373.500732421875 2373.498779296875 2373.503662109375 2373.511962890625 2373.523193359375 2373.52978515625 2373.542236328125 2373.557373046875 2373.559814453125 2373.566650390625 2373.569091796875 2373.575927734375 2373.580322265625 2373.572998046875 2373.561279296875 2373.55322265625 2373.53662109375 2373.52734375 2373.517578125 2373.4970703125 2373.496337890625 2373.495849609375 2373.488525390625 2373.4814453125 2373.499755859375 2373.5107421875 2373.514892578125 2373.526123046875 2373.557373046875 2373.570556640625 2373.589111328125 2373.61474609375 2373.62060546875 2373.629638671875 2373.63134765625 2373.628173828125 2373.627197265625 2373.62060546875 2373.60986328125 2373.593017578125 2373.584228515625 2373.55322265625 2373.530029296875 2373.497314453125 2373.477294921875 2373.442626953125 2373.412353515625 2373.38037109375 2373.37646484375 2373.365234375 2373.340576171875 2373.338134765625 2373.33740234375 2373.330322265625 2373.322265625 2373.3095703125
2373.72265625 2373.72216796875 2373.710693359375 2373.71044921875 2373.70947265625 2373.709228515625 2373.70751953125 2373.707275390625 2373.703369140625 2373.6904296875 2373.685791015625 2373.674560546875 2373.673828125 2373.673095703125 2373.6728515625 2373.6630859375 2373.66015625 2373.65087890625 2373.64404296875 2373.63818359375 2373.628662109375 2373.628173828125 2373.636962890625 2373.653076171875 2373.646728515625 2373.62353515625 2373.61474609375 2373.601806640625 2373.575439453125 2373.560302734375 2373.53955078125 2373.534423828125 2373.514892578125 2373.49853515625 2373.4970703125 2373.495361328125 2373.4892578125 2373.484130859375 2373.4833984375 2373.48291015625 2373.482177734375 2373.482666015625 2373.499755859375 2373.51123046875 2373.51513671875 2373.532470703125 2373.5478515625 2373.549560546875 2373.5517578125 2373.558349609375 2373.55810546875 2373.55712890625 2373.553466796875 2373.532470703125 2373.51904296875 2373.513671875 2373.492431640625 2373.47265625 2373.46728515625 2373.4609375 2373.451171875 2373.45068359375 2373.459228515625 2373.475830078125 2373.495361328125 2373.497802734375 2373.515380859375 2373.54248046875 2373.560791015625 2373.576904296875 2373.578125 2373.59375 2373.60595703125 2373.605712890625 2373.5947265625 2373.593994140625 2373.587890625 2373.56884765625 2373.54345703125 2373.53515625 2373.492919921875 2373.467041015625 2373.448486328125 2373.424072265625 2373.373779296875 2373.353759765625 2373.33203125 2373.330810546875 2373.327880859375 2373.3154296875 2373.302490234375 2373.30517578125 2373.297119140625 2373.27587890625
2373.69384765625 2373.686279296875 2373.685546875 2373.676513671875 2373.67626953125 2373.679931640625 2373.681396484375 2373.6826171875 2373.678466796875 2373.66845703125 2373.661376953125 2373.660400390625 2373.660888671875 2373.654052734375 2373.64697265625 2373.638916015625 2373.637939453125 2373.629150390625 2373.616943359375 2373.611572265625 2373.609375 2373.60986328125 2373.6044921875 2373.604736328125 2373.599609375 2373.595703125 2373.58056640625 2373.570556640625 2373.556396484375 2373.5263671875 2373.5185546875 2373.503173828125 2373.49560546875 2373.483154296875 2373.476806640625 2373.45849609375 2373.452392578125 2373.451171875 2373.450927734375 2373.452392578125 2373.458740234375 2373.4716796875 2373.48095703125 2373.491455078125 2373.506591796875 2373.510986328125 2373.52294921875 2373.532958984375 2373.536865234375 2373.543212890625 2373.5419921875 2373.53369140625 2373.529296875 2373.5126953125 2373.503173828125 2373.478515625 2373.4677734375 2373.45751953125 2373.452392578125 2373.444580078125 2373.436279296875 2373.43212890625 2373.427001953125 2373.443359375 2373.4658203125 2373.4716796875 2373.487060546875 2373.509521484375 2373.53271484375 2373.5400390625 2373.5419921875 2373.544189453125 2373.5615234375 2373.57666015625 2373.57568359375 2373.559326171875 2373.556640625 2373.534423828125 2373.524658203125 2373.490478515625 2373.4638671875 2373.441162109375 2373.391357421875 2373.36572265625 2373.339111328125 2373.3046875 2373.28515625 2373.281494140625 2373.2783203125 2373.266845703125 2373.2724609375 2373.27294921875 2373.261962890625 2373.2509765625
2373.6640625 2373.66162109375 2373.656494140625 2373.65576171875 2373.656982421875 2373.65478515625 2373.65283203125 2373.657470703125 2373.656982421875 2373.65380859375 2373.642333984375 2373.6396484375 2373.638916015625 2373.631103515625 2373.620361328125 2373.614501953125 2373.608154296875 2373.599853515625 2373.595703125 2373.577392578125 2373.572509765625 2373.567626953125 2373.562744140625 2373.56201171875 2373.56103515625 2373.556396484375 2373.54931640625 2373.526611328125 2373.517822265625 2373.500732421875 2373.480712890625 2373.470458984375 2373.464599609375 2373.454345703125 2373.446044921875 2373.437744140625 2373.430908203125 2373.430419921875 2373.4296875 2373.433349609375 2373.439697265625 2373.450927734375 2373.470458984375 2373.481201171875 2373.486083984375 2373.48583984375 2373.497314453125 2373.50048828125 2373.508056640625 2373.51220703125 2373.508544921875 2373.504150390625 2373.50146484375 2373.490234375 2373.47607421875 2373.462158203125 2373.443359375 2373.431884765625 2373.421630859375 2373.40869140625 2373.406494140625 2373.396240234375 2373.403076171875 2373.409423828125 2373.428466796875 2373.4384765625 2373.456787109375 2373.472900390625 2373.489013671875 2373.505859375 2373.5166015625 2373.51806640625 2373.53271484375 2373.541748046875 2373.53076171875 2373.52880859375 2373.519775390625 2373.49609375 2373.4833984375 2373.458740234375 2373.439208984375 2373.39892578125 2373.361083984375 2373.32470703125 2373.30517578125 2373.282958984375 2373.25390625 2373.2373046875 2373.235107421875 2373.236328125 2373.244140625 2373.248046875 2373.237060546875 2373.2265625
2373.631591796875 2373.6240234375 2373.613037109375 2373.60595703125 2373.61328125 2373.62548828125 2373.62744140625 2373.627685546875 2373.632568359375 2373.6298828125 2373.62744140625 2373.62646484375 2373.61474609375 2373.60595703125 2373.598876953125 2373.585205078125 2373.566650390625 2373.5654296875 2373.561279296875 2373.549560546875 2373.546630859375 2373.538818359375 2373.538330078125 2373.533447265625 2373.530517578125 2373.5244140625 2373.50634765625 2373.490478515625 2373.487548828125 2373.468994140625 2373.451416015625 2373.44580078125 2373.43994140625 2373.430419921875 2373.415771484375 2373.41259765625 2373.406494140625 2373.40625 2373.405517578125 2373.414794921875 2373.4208984375 2373.432373046875 2373.446044921875 2373.461669921875 2373.469482421875 2373.4765625 2373.4814453125 2373.481689453125 2373.482177734375 2373.484619140625 2373.48388671875 2373.479736328125 2373.47802734375 2373.47216796875 2373.45361328125 2373.4326171875 2373.4189453125 2373.3994140625 2373.38720703125 2373.382080078125 2373.38134765625 2373.37158203125 2373.379638671875 2373.386962890625 2373.398193359375 2373.400634765625 2373.4208984375 2373.435791015625 2373.44482421875 2373.455810546875 2373.478759765625 2373.484375 2373.496337890625 2373.497802734375 2373.493408203125 2373.490234375 2373.481689453125 2373.473388671875 2373.4599609375 2373.42724609375 2373.404296875 2373.362548828125 2373.31591796875 2373.29345703125 2373.2626953125 2373.2421875 2373.22705078125 2373.20751953125 2373.204345703125 2373.205322265625 2373.212646484375 2373.216552734375 2373.205810546875 2373.19287109375
2373.600341796875 2373.591552734375 2373.572021484375 2373.570068359375 2373.567138671875 2373.570068359375 2373.580078125 2373.591796875 2373.607421875 2373.607177734375 2373.606689453125 2373.604736328125 2373.586181640625 2373.58349609375 2373.569580078125 2373.562255859375 2373.5498046875 2373.549072265625 2373.5380859375 2373.521728515625 2373.518310546875 2373.517578125 2373.5087890625 2373.498046875 2373.49658203125 2373.49462890625 2373.47705078125 2373.458251953125 2373.453857421875 2373.44873046875 2373.430419921875 2373.429443359375 2373.422119140625 2373.408447265625 2373.39453125 2373.383056640625 2373.376953125 2373.36962890625 2373.37646484375 2373.3876953125 2373.398193359375 2373.41064453125 2373.421875 2373.44140625 2373.446044921875 2373.45263671875 2373.4599609375 2373.46142578125 2373.46044921875 2373.460205078125 2373.458740234375 2373.450927734375 2373.44873046875 2373.445068359375 2373.42529296875 2373.413330078125 2373.393310546875 2373.379150390625 2373.3671875 2373.35546875 2373.34423828125 2373.341796875 2373.344482421875 2373.35595703125 2373.35986328125 2373.360107421875 2373.3818359375 2373.389892578125 2373.390380859375 2373.40625 2373.428955078125 2373.43896484375 2373.45703125 2373.45654296875 2373.455322265625 2373.454833984375 2373.45361328125 2373.447021484375 2373.41796875 2373.404541015625 2373.361328125 2373.31689453125 2373.2802734375 2373.255126953125 2373.228759765625 2373.203857421875 2373.180908203125 2373.172119140625 2373.17041015625 2373.17333984375 2373.1796875 2373.179443359375 2373.177001953125 2373.155517578125
2373.576416015625 2373.567138671875 2373.55712890625 2373.55224609375 2373.539306640625 2373.539794921875 2373.551513671875 2373.556640625 2373.58203125 2373.588623046875 2373.58544921875 2373.581298828125 2373.571044921875 2373.5595703125 2373.540771484375 2373.52783203125 2373.517578125 2373.515625 2373.50390625 2373.4951171875 2373.4951171875 2373.490966796875 2373.482421875 2373.481689453125 2373.48046875 2373.451171875 2373.4453125 2373.431884765625 2373.427001953125 2373.4072265625 2373.402587890625 2373.394775390625 2373.38720703125 2373.3740234375 2373.370361328125 2373.361572265625 2373.3603515625 2373.359375 2373.360595703125 2373.361083984375 2373.369384765625 2373.392333984375 2373.407958984375 2373.41259765625 2373.436767578125 2373.437255859375 2373.4443359375 2373.44580078125 2373.43505859375 2373.429443359375 2373.424072265625 2373.4228515625 2373.420654296875 2373.408203125 2373.389892578125 2373.380859375 2373.368896484375 2373.35546875 2373.337890625 2373.32666015625 2373.32470703125 2373.304931640625 2373.3037109375 2373.30908203125 2373.321044921875 2373.3408203125 2373.34130859375 2373.345947265625 2373.357177734375 2373.36767578125 2373.38916015625 2373.4013671875 2373.413818359375 2373.418212890625 2373.417724609375 2373.41650390625 2373.415283203125 2373.40087890625 2373.38623046875 2373.361572265625 2373.32763671875 2373.279296875 2373.251953125 2373.217529296875 2373.176025390625 2373.161865234375 2373.147705078125 2373.125732421875 2373.123046875 2373.1259765625 2373.1259765625 2373.120849609375 2373.119873046875 2373.1181640625
2373.55712890625 2373.552001953125 2373.537353515625 2373.5234375 2373.5078125 2373.501953125 2373.5166015625 2373.523681640625 2373.550048828125 2373.568359375 2373.57080078125 2373.5625 2373.55029296875 2373.532958984375 2373.515625 2373.505615234375 2373.503662109375 2373.493408203125 2373.486328125 2373.47802734375 2373.476318359375 2373.46826171875 2373.462890625 2373.45654296875 2373.44921875 2373.439697265625 2373.423828125 2373.410888671875 2373.39794921875 2373.38818359375 2373.373046875 2373.366943359375 2373.360107421875 2373.351806640625 2373.349609375 2373.342041015625 2373.337646484375 2373.330078125 2373.341552734375 2373.352294921875 2373.355224609375 2373.363525390625 2373.387939453125 2373.397705078125 2373.406005859375 2373.409423828125 2373.411865234375 2373.411376953125 2373.40283203125 2373.39990234375 2373.39892578125 2373.39208984375 2373.386962890625 2373.37841796875 2373.36865234375 2373.364990234375 2373.34375 2373.333740234375 2373.31494140625 2373.30029296875 2373.288818359375 2373.279296875 2373.279296875 2373.282958984375 2373.290771484375 2373.298095703125 2373.2978515625 2373.304931640625 2373.315185546875 2373.316162109375 2373.32470703125 2373.345458984375 2373.35888671875 2373.3662109375 2373.367431640625 2373.367431640625 2373.35986328125 2373.3408203125 2373.338623046875 2373.311279296875 2373.274169921875 2373.2421875 2373.2080078125 2373.170166015625 2373.149169921875 2373.12353515625 2373.102783203125 2373.093505859375 2373.082275390625 2373.079833984375 2373.074951171875 2373.074462890625 2373.07080078125 2373.06005859375
2373.53564453125 2373.5283203125 2373.51123046875 2373.5048828125 2373.495361328125 2373.489501953125 2373.4931640625 2373.5087890625 2373.518310546875 2373.530517578125 2373.53662109375 2373.536376953125 2373.521728515625 2373.504638671875 2373.498291015625 2373.48388671875 2373.47607421875 2373.467529296875 2373.460205078125 2373.447509765625 2373.44384765625 2373.440673828125 2373.4296875 2373.426513671875 2373.42626953125 2373.4150390625 2373.404052734375 2373.387451171875 2373.370849609375 2373.361572265625 2373.357666015625 2373.343017578125 2373.3359375 2373.33349609375 2373.3330078125 2373.326416015625 2373.3134765625 2373.314697265625 2373.310302734375 2373.322509765625 2373.33642578125 2373.35107421875 2373.363037109375 2373.37548828125 2373.38818359375 2373.3876953125 2373.3828125 2373.381103515625 2373.375 2373.374755859375 2373.37451171875 2373.368896484375 2373.356201171875 2373.346923828125 2373.33984375 2373.33447265625 2373.30859375 2373.296142578125 2373.2802734375 2373.267822265625 2373.251708984375 2373.248779296875 2373.245361328125 2373.254150390625 2373.254150390625 2373.261962890625 2373.25830078125 2373.260009765625 2373.279296875 2373.28515625 2373.28857421875 2373.30712890625 2373.306640625 2373.3203125 2373.3232421875 2373.320556640625 2373.30908203125 2373.29541015625 2373.2802734375 2373.2421875 2373.219970703125 2373.190185546875 2373.1650390625 2373.134033203125 2373.11181640625 2373.082275390625 2373.07080078125 2373.065185546875 2373.053466796875 2373.049560546875 2373.033447265625 2373.0263671875 2373.02099609375 2373.0185546875
2373.52392578125 2373.512451171875 2373.506591796875 2373.49609375 2373.48681640625 2373.484375 2373.484130859375 2373.489013671875 2373.493408203125 2373.50341796875 2373.5146484375 2373.509521484375 2373.49658203125 2373.4755859375 2373.46875 2373.461181640625 2373.456298828125 2373.437744140625 2373.415283203125 2373.418212890625 2373.4189453125 2373.4150390625 2373.405029296875 2373.404541015625 2373.4033203125 2373.38720703125 2373.3798828125 2373.364990234375 2373.35986328125 2373.341796875 2373.33203125 2373.319580078125 2373.30419921875 2373.301025390625 2373.30078125 2373.29541015625 2373.291015625 2373.29541015625 2373.292724609375 2373.295654296875 2373.306640625 2373.3291015625 2373.349853515625 2373.359375 2373.363525390625 2373.363037109375 2373.359619140625 2373.3583984375 2373.345458984375 2373.3349609375 2373.334716796875 2373.331787109375 2373.327880859375 2373.327392578125 2373.314697265625 2373.29931640625 2373.289306640625 2373.27197265625 2373.2607421875 2373.23974609375 2373.228759765625 2373.224609375 2373.21240234375 2373.225341796875 2373.228515625 2373.227783203125 2373.22607421875 2373.2275390625 2373.231201171875 2373.233154296875 2373.242431640625 2373.258544921875 2373.262451171875 2373.276123046875 2373.27880859375 2373.27685546875 2373.267333984375 2373.256103515625 2373.22998046875 2373.192138671875 2373.168212890625 2373.13525390625 2373.128173828125 2373.0966796875 2373.078125 2373.055419921875 2373.037841796875 2373.0302734375 2373.010986328125 2373.008056640625 2372.998291015625 2372.98828125 2372.986572265625 2372.97607421875
2373.516845703125 2373.5078125 2373.4970703125 2373.486328125 2373.48486328125 2373.484130859375 2373.484130859375 2373.47412109375 2373.472900390625 2373.47314453125 2373.472900390625 2373.47216796875 2373.461181640625 2373.4599609375 2373.458984375 2373.457275390625 2373.434326171875 2373.4130859375 2373.3876953125 2373.375244140625 2373.375 2373.373779296875 2373.376953125 2373.37548828125 2373.37158203125 2373.368896484375 2373.352294921875 2373.333740234375 2373.32861328125 2373.317138671875 2373.313720703125 2373.30029296875 2373.286865234375 2373.283203125 2373.283203125 2373.281982421875 2373.281494140625 2373.28125 2373.27978515625 2373.279296875 2373.27978515625 2373.300537109375 2373.336181640625 2373.3388671875 2373.3349609375 2373.328369140625 2373.327880859375 2373.325927734375 2373.3251953125 2373.32421875 2373.3232421875 2373.305419921875 2373.303466796875 2373.294921875 2373.281494140625 2373.272705078125 2373.268310546875 2373.236328125 2373.223388671875 2373.210205078125 2373.188720703125 2373.18505859375 2373.18408203125 2373.183837890625 2373.183837890625 2373.18310546875 2373.182373046875 2373.19091796875 2373.200927734375 2373.208740234375 2373.2099609375 2373.21044921875 2373.2158203125 2373.218994140625 2373.21875 2373.218505859375 2373.217529296875 2373.21630859375 2373.178955078125 2373.14990234375 2373.11865234375 2373.099365234375 2373.074462890625 2373.03955078125 2373.03173828125 2373.007568359375 2373.006591796875 2372.9873046875 2372.98193359375 2372.9599609375 2372.958251953125 2372.9541015625 2372.941162109375 2372.92822265625
2373.512451171875 2373.5078125 2373.496826171875 2373.4853515625 2373.4794921875 2373.47509765625 2373.470703125 2373.452392578125 2373.457275390625 2373.4560546875 2373.45458984375 2373.452880859375 2373.453857421875 2373.453125 2373.4345703125 2373.4111328125 2373.39599609375 2373.359130859375 2373.332763671875 2373.3271484375 2373.3291015625 2373.34033203125 2373.347412109375 2373.347412109375 2373.344970703125 2373.333984375 2373.324951171875 2373.32275390625 2373.31298828125 2373.294677734375 2373.291259765625 2373.28173828125 2373.273681640625 2373.26904296875 2373.2578125 2373.249755859375 2373.24853515625 2373.24853515625 2373.25537109375 2373.257080078125 2373.260498046875 2373.264404296875 2373.2822265625 2373.30859375 2373.305419921875 2373.3125 2373.312255859375 2373.30126953125 2373.298583984375 2373.29052734375 2373.28076171875 2373.269775390625 2373.265380859375 2373.25390625 2373.236572265625 2373.233642578125 2373.21240234375 2373.207275390625 2373.18896484375 2373.18115234375 2373.1767578125 2373.158935546875 2373.1484375 2373.152099609375 2373.14990234375 2373.15576171875 2373.154296875 2373.154296875 2373.166259765625 2373.171875 2373.177978515625 2373.170654296875 2373.1708984375 2373.177490234375 2373.186767578125 2373.1865234375 2373.185302734375 2373.160888671875 2373.13671875 2373.096923828125 2373.0791015625 2373.061279296875 2373.037353515625 2373.0009765625 2372.98193359375 2372.9609375 2372.959228515625 2372.939208984375 2372.927490234375 2372.91748046875 2372.90869140625 2372.902587890625 2372.891357421875 2372.880615234375
2373.5107421875 2373.507568359375 2373.4921875 2373.476318359375 2373.468994140625 2373.463134765625 2373.44677734375 2373.436767578125 2373.428466796875 2373.421875 2373.417724609375 2373.416259765625 2373.421142578125 2373.41455078125 2373.403076171875 2373.37158203125 2373.355224609375 2373.32470703125 2373.303955078125 2373.298583984375 2373.300048828125 2373.314208984375 2373.318359375 2373.32080078125 2373.31591796875 2373.31298828125 2373.300537109375 2373.29345703125 2373.283935546875 2373.281005859375 2373.27099609375 2373.261474609375 2373.254638671875 2373.2451171875 2373.23779296875 2373.23291015625 2373.23486328125 2373.236083984375 2373.23583984375 2373.241455078125 2373.244140625 2373.244140625 2373.258056640625 2373.2734375 2373.28076171875 2373.2880859375 2373.2880859375 2373.280517578125 2373.274169921875 2373.269775390625 2373.25927734375 2373.244384765625 2373.231201171875 2373.216064453125 2373.20703125 2373.197021484375 2373.170654296875 2373.169921875 2373.159912109375 2373.1455078125 2373.13232421875 2373.1298828125 2373.121826171875 2373.118896484375 2373.11865234375 2373.1181640625 2373.116943359375 2373.116943359375 2373.123046875 2373.1259765625 2373.1259765625 2373.129150390625 2373.1318359375 2373.126708984375 2373.128662109375 2373.12841796875 2373.125244140625 2373.118408203125 2373.095947265625 2373.05029296875 2373.023193359375 2372.987060546875 2372.982177734375 2372.95947265625 2372.94287109375 2372.924072265625 2372.912109375 2372.892822265625 2372.886474609375 2372.875244140625 2372.86328125 2372.8544921875 2372.841064453125 2372.8408203125
2373.495849609375 2373.48974609375 2373.480224609375 2373.459716796875 2373.45361328125 2373.436279296875 2373.42724609375 2373.41796875 2373.4072265625 2373.396728515625 2373.388427734375 2373.384033203125 2373.389404296875 2373.3837890625 2373.359619140625 2373.33203125 2373.312744140625 2373.287841796875 2373.273681640625 2373.273193359375 2373.26220703125 2373.270751953125 2373.281005859375 2373.289794921875 2373.290283203125 2373.2900390625 2373.28564453125 2373.267578125 2373.25732421875 2373.24951171875 2373.24169921875 2373.23974609375 2373.232177734375 2373.22021484375 2373.21826171875 2373.21484375 2373.219970703125 2373.22314453125 2373.222900390625 2373.217041015625 2373.21923828125 2373.22314453125 2373.233642578125 2373.248291015625 2373.253173828125 2373.26416015625 2373.269287109375 2373.2685546875 2373.259521484375 2373.247802734375 2373.23046875 2373.21923828125 2373.198974609375 2373.1787109375 2373.160888671875 2373.153564453125 2373.14013671875 2373.126953125 2373.116455078125 2373.1025390625 2373.0947265625 2373.09375 2373.09326171875 2373.082763671875 2373.0751953125 2373.074951171875 2373.074951171875 2373.076904296875 2373.075439453125 2373.081298828125 2373.082763671875 2373.091064453125 2373.0869140625 2373.077392578125 2373.072509765625 2373.07177734375 2373.077392578125 2373.07666015625 2373.04052734375 2373.006591796875 2372.970947265625 2372.9404296875 2372.93359375 2372.909912109375 2372.8984375 2372.874755859375 2372.85205078125 2372.842529296875 2372.82470703125 2372.818115234375 2372.813232421875 2372.79443359375 2372.784912109375 2372.782958984375
2373.46240234375 2373.467041015625 2373.43359375 2373.429443359375 2373.423828125 2373.40380859375 2373.388671875 2373.374755859375 2373.35791015625 2373.35546875 2373.353271484375 2373.351318359375 2373.350341796875 2373.343017578125 2373.32666015625 2373.29931640625 2373.2685546875 2373.25634765625 2373.248779296875 2373.237548828125 2373.23388671875 2373.2353515625 2373.248046875 2373.253662109375 2373.253662109375 2373.259521484375 2373.251953125 2373.233642578125 2373.22021484375 2373.217041015625 2373.216796875 2373.21240234375 2373.20556640625 2373.203125 2373.194091796875 2373.19677734375 2373.202392578125 2373.208984375 2373.2099609375 2373.2001953125 2373.19970703125 2373.2001953125 2373.209228515625 2373.21923828125 2373.22265625 2373.2353515625 2373.2470703125 2373.24755859375 2373.242431640625 2373.221435546875 2373.199462890625 2373.186279296875 2373.1689453125 2373.13671875 2373.1220703125 2373.113525390625 2373.10205078125 2373.078369140625 2373.06591796875 2373.0595703125 2373.0576171875 2373.056396484375 2373.052490234375 2373.050048828125 2373.03759765625 2373.03369140625 2373.03564453125 2373.0380859375 2373.03125 2373.03173828125 2373.031982421875 2373.029541015625 2373.0224609375 2373.021484375 2373.02734375 2373.0185546875 2373.018798828125 2373.012939453125 2373.003173828125 2372.9609375 2372.919677734375 2372.89501953125 2372.876220703125 2372.85107421875 2372.83349609375 2372.806396484375 2372.797607421875 2372.7880859375 2372.766845703125 2372.761962890625 2372.76025390625 2372.7529296875 2372.74951171875 2372.744384765625
2373.42529296875 2373.423828125 2373.405029296875 2373.393798828125 2373.38330078125 2373.371826171875 2373.36181640625 2373.345458984375 2373.328125 2373.32177734375 2373.30810546875 2373.30615234375 2373.314697265625 2373.314453125 2373.29296875 2373.2646484375 2373.2421875 2373.22998046875 2373.21044921875 2373.208984375 2373.20947265625 2373.211669921875 2373.22265625 2373.227294921875 2373.2353515625 2373.2333984375 2373.21630859375 2373.209228515625 2373.19580078125 2373.19189453125 2373.188720703125 2373.18115234375 2373.1806640625 2373.170654296875 2373.170654296875 2373.17431640625 2373.1845703125 2373.18798828125 2373.1962890625 2373.196533203125 2373.187255859375 2373.176513671875 2373.18310546875 2373.193603515625 2373.201171875 2373.21923828125 2373.222412109375 2373.2216796875 2373.21337890625 2373.181396484375 2373.1689453125 2373.142333984375 2373.126708984375 2373.11181640625 2373.097900390625 2373.084716796875 2373.05224609375 2373.022216796875 2373.020263671875 2373.01953125 2373.017333984375 2373.01708984375 2373.01416015625 2373.0068359375 2373.005615234375 2373.0048828125 2372.997314453125 2372.973876953125 2372.979736328125 2372.982177734375 2372.98095703125 2372.976806640625 2372.9697265625 2372.9697265625 2372.947998046875 2372.947509765625 2372.950927734375 2372.949462890625 2372.927734375 2372.90234375 2372.876953125 2372.851806640625 2372.827392578125 2372.80029296875 2372.779052734375 2372.773681640625 2372.75341796875 2372.73779296875 2372.734375 2372.72509765625 2372.723876953125 2372.72314453125 2372.691650390625 2372.689208984375
2373.398681640625 2373.3916015625 2373.38232421875 2373.371337890625 2373.349853515625 2373.3369140625 2373.329833984375 2373.305908203125 2373.289306640625 2373.28271484375 2373.270751953125 2373.2685546875 2373.273193359375 2373.272705078125 2373.25048828125 2373.232421875 2373.212890625 2373.2021484375 2373.189208984375 2373.1845703125 2373.190673828125 2373.1953125 2373.201171875 2373.20458984375 2373.205078125 2373.200927734375 2373.200439453125 2373.18994140625 2373.173828125 2373.15771484375 2373.154541015625 2373.155029296875 2373.15576171875 2373.14892578125 2373.15576171875 2373.1650390625 2373.166748046875 2373.166015625 2373.166015625 2373.171630859375 2373.16796875 2373.16357421875 2373.15673828125 2373.16357421875 2373.173828125 2373.182373046875 2373.181884765625 2373.18408203125 2373.173828125 2373.148681640625 2373.13134765625 2373.12109375 2373.100341796875 2373.07568359375 2373.05322265625 2373.02880859375 2373.0087890625 2372.9912109375 2372.97705078125 2372.97021484375 2372.961669921875 2372.9619140625 2372.96630859375 2372.959716796875 2372.95654296875 2372.9521484375 2372.945556640625 2372.9267578125 2372.927490234375 2372.92578125 2372.921875 2372.9189453125 2372.909912109375 2372.902099609375 2372.8916015625 2372.890625 2372.8857421875 2372.88134765625 2372.873291015625 2372.849365234375 2372.8271484375 2372.810791015625 2372.79248046875 2372.749755859375 2372.72607421875 2372.7158203125 2372.697509765625 2372.693359375 2372.685546875 2372.681396484375 2372.670166015625 2372.663818359375 2372.648193359375 2372.646484375
2373.375244140625 2373.36181640625 2373.34375 2373.332763671875 2373.307373046875 2373.2998046875 2373.286376953125 2373.271240234375 2373.24951171875 2373.23876953125 2373.22802734375 2373.2255859375 2373.219482421875 2373.21142578125 2373.1962890625 2373.187744140625 2373.181396484375 2373.172119140625 2373.162109375 2373.159423828125 2373.1591796875 2373.166015625 2373.175537109375 2373.1806640625 2373.181396484375 2373.176025390625 2373.175537109375 2373.165771484375 2373.146240234375 2373.1279296875 2373.122314453125 2373.126220703125 2373.130859375 2373.130126953125 2373.129638671875 2373.13232421875 2373.14453125 2373.148681640625 2373.148193359375 2373.147216796875 2373.146484375 2373.1455078125 2373.1357421875 2373.1337890625 2373.133544921875 2373.133056640625 2373.132568359375 2373.14697265625 2373.1416015625 2373.1162109375 2373.093994140625 2373.079345703125 2373.052978515625 2373.026123046875 2373.01025390625 2372.966796875 2372.952392578125 2372.94140625 2372.92529296875 2372.92138671875 2372.9189453125 2372.917724609375 2372.910888671875 2372.90673828125 2372.906494140625 2372.901123046875 2372.88232421875 2372.883544921875 2372.890380859375 2372.878662109375 2372.8720703125 2372.87158203125 2372.858642578125 2372.83349609375 2372.838134765625 2372.836669921875 2372.824951171875 2372.816162109375 2372.80615234375 2372.793701171875 2372.775146484375 2372.748779296875 2372.7294921875 2372.699951171875 2372.677490234375 2372.66357421875 2372.654541015625 2372.6474609375 2372.646728515625 2372.644287109375 2372.63427734375 2372.62109375 2372.6181640625 2372.608642578125
2373.347900390625 2373.326416015625 2373.311279296875 2373.293212890625 2373.270751953125 2373.270751953125 2373.23583984375 2373.230712890625 2373.22021484375 2373.1982421875 2373.1787109375 2373.1611328125 2373.16552734375 2373.16162109375 2373.1484375 2373.135009765625 2373.140869140625 2373.132568359375 2373.135009765625 2373.135009765625 2373.1416015625 2373.144775390625 2373.156982421875 2373.16015625 2373.153076171875 2373.1494140625 2373.135986328125 2373.1318359375 2373.118896484375 2373.112548828125 2373.09765625 2373.09814453125 2373.09375 2373.0908203125 2373.11181640625 2373.1103515625 2373.114990234375 2373.12841796875 2373.130859375 2373.12255859375 2373.1220703125 2373.12109375 2373.109130859375 2373.090576171875 2373.086669921875 2373.090576171875 2373.09033203125 2373.094482421875 2373.0908203125 2373.072021484375 2373.046142578125 2373.02197265625 2372.9990234375 2372.970703125 2372.95068359375 2372.91943359375 2372.910400390625 2372.9033203125 2372.8828125 2372.8701171875 2372.869140625 2372.862060546875 2372.864990234375 2372.86474609375 2372.85791015625 2372.84814453125 2372.841796875 2372.849365234375 2372.841552734375 2372.824462890625 2372.821533203125 2372.80859375 2372.794921875 2372.781982421875 2372.77880859375 2372.7685546875 2372.752685546875 2372.742919921875 2372.738525390625 2372.7373046875 2372.72900390625 2372.697509765625 2372.673828125 2372.650390625 2372.644775390625 2372.626708984375 2372.612548828125 2372.6142578125 2372.60595703125 2372.59765625 2372.594482421875 2372.58349609375 2372.56591796875 2372.559814453125
2373.3046875 2373.295166015625 2373.26416015625 2373.25341796875 2373.233154296875 2373.19091796875 2373.18017578125 2373.178955078125 2373.1748046875 2373.155517578125 2373.137939453125 2373.12451171875 2373.099365234375 2373.109130859375 2373.103271484375 2373.093017578125 2373.092041015625 2373.094970703125 2373.1064453125 2373.117919921875 2373.12890625 2373.129150390625 2373.128662109375 2373.13525390625 2373.128662109375 2373.123291015625 2373.10595703125 2373.10546875 2373.080078125 2373.072998046875 2373.070068359375 2373.057373046875 2373.051513671875 2373.05908203125 2373.080810546875 2373.083251953125 2373.094482421875 2373.098388671875 2373.098876953125 2373.100341796875 2373.106689453125 2373.09228515625 2373.058349609375 2373.042724609375 2373.034423828125 2373.03369140625 2373.033447265625 2373.033203125 2373.038818359375 2373.0126953125 2372.982421875 2372.969482421875 2372.941650390625 2372.906494140625 2372.893310546875 2372.86767578125 2372.86328125 2372.857666015625 2372.8408203125 2372.826171875 2372.810302734375 2372.79833984375 2372.798583984375 2372.803466796875 2372.799072265625 2372.7861328125 2372.79052734375 2372.804931640625 2372.790283203125 2372.782470703125 2372.77978515625 2372.75439453125 2372.740234375 2372.70849609375 2372.699951171875 2372.700927734375 2372.702392578125 2372.69580078125 2372.6865234375 2372.68505859375 2372.670166015625 2372.637451171875 2372.6318359375 2372.60107421875 2372.597412109375 2372.58837890625 2372.580810546875 2372.5771484375 2372.576416015625 2372.572021484375 2372.553955078125 2372.536865234375 2372.513671875 2372.51318359375
2373.27880859375 2373.260009765625 2373.244140625 2373.21826171875 2373.185791015625 2373.152587890625 2373.136962890625 2373.13134765625 2373.12353515625 2373.104248046875 2373.083984375 2373.063232421875 2373.048095703125 2373.05029296875 2373.046875 2373.047119140625 2373.05908203125 2373.07177734375 2373.084228515625 2373.086669921875 2373.08740234375 2373.111083984375 2373.11181640625 2373.105712890625 2373.091064453125 2373.083251953125 2373.0849609375 2373.055908203125 2373.039306640625 2373.042236328125 2373.033935546875 2373.03564453125 2373.035888671875 2373.0361328125 2373.04150390625 2373.05859375 2373.0654296875 2373.07861328125 2373.081787109375 2373.08056640625 2373.072998046875 2373.056884765625 2373.029541015625 2373.0224609375 2373.00048828125 2372.996826171875 2372.9990234375 2372.998779296875 2372.987060546875 2372.965576171875 2372.942626953125 2372.918701171875 2372.893798828125 2372.8662109375 2372.845703125 2372.83349609375 2372.813232421875 2372.811767578125 2372.80126953125 2372.78369140625 2372.771728515625 2372.76220703125 2372.767578125 2372.765625 2372.758544921875 2372.758544921875 2372.763671875 2372.751220703125 2372.73828125 2372.71142578125 2372.703125 2372.693603515625 2372.690185546875 2372.68603515625 2372.677001953125 2372.65576171875 2372.635009765625 2372.634765625 2372.62255859375 2372.60888671875 2372.5908203125 2372.584716796875 2372.582275390625 2372.57958984375 2372.553955078125 2372.552001953125 2372.550537109375 2372.550048828125 2372.53076171875 2372.52978515625 2372.5166015625 2372.5068359375 2372.49462890625 2372.48583984375
2373.244140625 2373.21337890625 2373.1943359375 2373.15966796875 2373.12353515625 2373.1103515625 2373.107177734375 2373.093017578125 2373.080810546875 2373.05908203125 2373.044189453125 2373.01416015625 2373.013427734375 2373.00927734375 2373.0107421875 2373.013427734375 2373.029296875 2373.032470703125 2373.039306640625 2373.054931640625 2373.0576171875 2373.066650390625 2373.070068359375 2373.069580078125 2373.05419921875 2373.051513671875 2373.041748046875 2373.022216796875 2373.0107421875 2372.989013671875 2372.997802734375 2373.004638671875 2373.01025390625 2373.0107421875 2373.025390625 2373.025390625 2373.0390625 2373.044677734375 2373.048583984375 2373.0537109375 2373.046630859375 2373.026611328125 2372.98974609375 2372.971923828125 2372.946533203125 2372.936279296875 2372.932861328125 2372.932373046875 2372.928955078125 2372.911376953125 2372.89013671875 2372.861328125 2372.84375 2372.8173828125 2372.80908203125 2372.78369140625 2372.771728515625 2372.767333984375 2372.747314453125 2372.732666015625 2372.733642578125 2372.726318359375 2372.716064453125 2372.70947265625 2372.71044921875 2372.712158203125 2372.7119140625 2372.703857421875 2372.6884765625 2372.6796875 2372.664794921875 2372.6513671875 2372.641357421875 2372.62255859375 2372.609619140625 2372.589599609375 2372.581298828125 2372.574951171875 2372.552734375 2372.54443359375 2372.544189453125 2372.541259765625 2372.536865234375 2372.521728515625 2372.520751953125 2372.517333984375 2372.512939453125 2372.51220703125 2372.505615234375 2372.49755859375 2372.4765625 2372.46533203125 2372.448974609375 2372.441162109375
2373.199951171875 2373.169677734375 2373.144775390625 2373.11328125 2373.084716796875 2373.067626953125 2373.04638671875 2373.04296875 2373.02880859375 2373.0068359375 2372.9951171875 2372.99560546875 2372.979248046875 2372.96533203125 2372.962890625 2372.974853515625 2372.98095703125 2372.989013671875 2372.99267578125 2373.006103515625 2373.008056640625 2373.01953125 2373.01708984375 2373.019775390625 2373.015869140625 2373.000732421875 2372.987548828125 2372.975830078125 2372.967041015625 2372.958251953125 2372.964599609375 2372.964111328125 2372.970458984375 2372.973388671875 2372.994384765625 2372.992431640625 2373.00244140625 2373.012451171875 2373.016845703125 2373.01513671875 2373.00634765625 2372.985107421875 2372.952392578125 2372.922119140625 2372.897216796875 2372.89013671875 2372.884033203125 2372.87646484375 2372.877685546875 2372.855224609375 2372.833984375 2372.81005859375 2372.796630859375 2372.782958984375 2372.758544921875 2372.748779296875 2372.727294921875 2372.723388671875 2372.703857421875 2372.69384765625 2372.68505859375 2372.67578125 2372.6708984375 2372.672119140625 2372.672607421875 2372.66259765625 2372.660888671875 2372.653564453125 2372.632568359375 2372.623046875 2372.62158203125 2372.60546875 2372.57861328125 2372.56494140625 2372.54833984375 2372.54052734375 2372.537109375 2372.52685546875 2372.503662109375 2372.500244140625 2372.496337890625 2372.490234375 2372.4853515625 2372.478271484375 2372.47802734375 2372.479736328125 2372.478271484375 2372.475341796875 2372.47216796875 2372.44970703125 2372.436767578125 2372.41796875 2372.404296875 2372.397216796875
2373.163330078125 2373.130615234375 2373.1044921875 2373.0869140625 2373.0654296875 2373.039794921875 2373.018310546875 2373.0126953125 2372.98486328125 2372.970947265625 2372.951171875 2372.948486328125 2372.93359375 2372.923828125 2372.923095703125 2372.93310546875 2372.9443359375 2372.96044921875 2372.966064453125 2372.97119140625 2372.97021484375 2372.970947265625 2372.970458984375 2372.95849609375 2372.95263671875 2372.95654296875 2372.947998046875 2372.9306640625 2372.925048828125 2372.924560546875 2372.924072265625 2372.92333984375 2372.935546875 2372.947998046875 2372.96142578125 2372.9609375 2372.961669921875 2372.963134765625 2372.963134765625 2372.9619140625 2372.9599609375 2372.93798828125 2372.89306640625 2372.873779296875 2372.8544921875 2372.847900390625 2372.849609375 2372.831787109375 2372.8271484375 2372.801513671875 2372.782470703125 2372.76025390625 2372.747802734375 2372.738525390625 2372.713134765625 2372.69775390625 2372.69140625 2372.6865234375 2372.662353515625 2372.6513671875 2372.6484375 2372.63525390625 2372.627685546875 2372.6279296875 2372.620361328125 2372.608642578125 2372.6025390625 2372.588134765625 2372.58447265625 2372.582275390625 2372.5771484375 2372.544189453125 2372.533447265625 2372.513427734375 2372.49853515625 2372.48828125 2372.46142578125 2372.4599609375 2372.448486328125 2372.4384765625 2372.444091796875 2372.442626953125 2372.441162109375 2372.441162109375 2372.437744140625 2372.435302734375 2372.43896484375 2372.438232421875 2372.42626953125 2372.40625 2372.39990234375 2372.38525390625 2372.380615234375 2372.361572265625
2373.11669921875 2373.10009765625 2373.087646484375 2373.064697265625 2373.0419921875 2373.010498046875 2372.99462890625 2372.972412109375 2372.9541015625 2372.933837890625 2372.905517578125 2372.89794921875 2372.89453125 2372.8916015625 2372.889404296875 2372.902587890625 2372.90576171875 2372.9130859375 2372.92431640625 2372.924072265625 2372.92431640625 2372.93212890625 2372.931884765625 2372.923583984375 2372.919677734375 2372.90966796875 2372.90478515625 2372.89306640625 2372.89697265625 2372.88916015625 2372.896484375 2372.895751953125 2372.895751953125 2372.9033203125 2372.922607421875 2372.923095703125 2372.933837890625 2372.943115234375 2372.951171875 2372.9404296875 2372.905029296875 2372.871826171875 2372.857666015625 2372.826904296875 2372.80810546875 2372.7880859375 2372.783935546875 2372.782470703125 2372.77880859375 2372.752197265625 2372.73193359375 2372.730712890625 2372.697998046875 2372.690185546875 2372.677490234375 2372.661865234375 2372.654052734375 2372.638427734375 2372.6220703125 2372.608154296875 2372.60205078125 2372.597412109375 2372.5751953125 2372.568115234375 2372.568115234375 2372.5673828125 2372.56298828125 2372.55419921875 2372.533935546875 2372.5166015625 2372.518798828125 2372.490478515625 2372.45947265625 2372.4326171875 2372.427734375 2372.419677734375 2372.396484375 2372.382080078125 2372.392333984375 2372.385498046875 2372.393798828125 2372.399169921875 2372.40283203125 2372.403564453125 2372.3935546875 2372.401611328125 2372.410888671875 2372.391845703125 2372.379638671875 2372.37890625 2372.361328125 2372.340087890625 2372.33642578125 2372.32373046875
2373.0849609375 2373.078857421875 2373.0625 2373.03564453125 2373.01513671875 2372.980224609375 2372.968505859375 2372.950439453125 2372.915771484375 2372.89404296875 2372.879638671875 2372.86376953125 2372.863525390625 2372.859375 2372.85498046875 2372.8603515625 2372.875732421875 2372.883544921875 2372.89013671875 2372.892333984375 2372.898681640625 2372.895263671875 2372.89453125 2372.8818359375 2372.873291015625 2372.86865234375 2372.861572265625 2372.861328125 2372.8662109375 2372.8671875 2372.866455078125 2372.86279296875 2372.86279296875 2372.8583984375 2372.865478515625 2372.874267578125 2372.8798828125 2372.8935546875 2372.895751953125 2372.876953125 2372.852294921875 2372.825927734375 2372.802734375 2372.79248046875 2372.751953125 2372.735595703125 2372.73388671875 2372.733154296875 2372.72705078125 2372.708984375 2372.706787109375 2372.6904296875 2372.660400390625 2372.657958984375 2372.64794921875 2372.636962890625 2372.603759765625 2372.591064453125 2372.569580078125 2372.565185546875 2372.5615234375 2372.5419921875 2372.52685546875 2372.521728515625 2372.51611328125 2372.513671875 2372.501708984375 2372.4853515625 2372.48046875 2372.480712890625 2372.44873046875 2372.4296875 2372.4052734375 2372.38134765625 2372.37109375 2372.355224609375 2372.342041015625 2372.336181640625 2372.335205078125 2372.33642578125 2372.349609375 2372.353759765625 2372.3583984375 2372.365478515625 2372.3623046875 2372.3623046875 2372.361328125 2372.34228515625 2372.339599609375 2372.336669921875 2372.3271484375 2372.312744140625 2372.302001953125 2372.296142578125
2373.044677734375 2373.031982421875 2373.02734375 2373.000244140625 2372.9765625 2372.947998046875 2372.939453125 2372.908203125 2372.8798828125 2372.863525390625 2372.837646484375 2372.833740234375 2372.8330078125 2372.832275390625 2372.831787109375 2372.8310546875 2372.83056640625 2372.83740234375 2372.85791015625 2372.864501953125 2372.86376953125 2372.858154296875 2372.857666015625 2372.85302734375 2372.842529296875 2372.828857421875 2372.82275390625 2372.828857421875 2372.828125 2372.8271484375 2372.816650390625 2372.816162109375 2372.8154296875 2372.814697265625 2372.814697265625 2372.81982421875 2372.822021484375 2372.82177734375 2372.81005859375 2372.790771484375 2372.766357421875 2372.7490234375 2372.733154296875 2372.708251953125 2372.6953125 2372.6884765625 2372.679443359375 2372.682861328125 2372.682861328125 2372.67724609375 2372.6630859375 2372.641357421875 2372.63818359375 2372.629638671875 2372.605224609375 2372.59130859375 2372.574951171875 2372.55029296875 2372.53662109375 2372.529541015625 2372.5126953125 2372.5029296875 2372.48095703125 2372.4736328125 2372.46533203125 2372.45166015625 2372.448974609375 2372.43359375 2372.4140625 2372.413330078125 2372.39599609375 2372.37060546875 2372.3447265625 2372.335693359375 2372.32861328125 2372.309326171875 2372.294677734375 2372.284423828125 2372.280029296875 2372.287841796875 2372.3095703125 2372.3154296875 2372.3271484375 2372.328369140625 2372.3193359375 2372.318115234375 2372.315185546875 2372.31201171875 2372.310791015625 2372.30712890625 2372.29345703125 2372.280029296875 2372.271728515625 2372.258544921875
2373.007080078125 2372.996826171875 2372.977294921875 2372.9453125 2372.926513671875 2372.915283203125 2372.902099609375 2372.8681640625 2372.849853515625 2372.82177734375 2372.799560546875 2372.803466796875 2372.80322265625 2372.802490234375 2372.801513671875 2372.801513671875 2372.80810546875 2372.81005859375 2372.818359375 2372.82177734375 2372.821533203125 2372.820556640625 2372.8203125 2372.814208984375 2372.808349609375 2372.797119140625 2372.7939453125 2372.796142578125 2372.795654296875 2372.779052734375 2372.762939453125 2372.766357421875 2372.757568359375 2372.757080078125 2372.76513671875 2372.7734375 2372.77783203125 2372.76513671875 2372.72509765625 2372.71142578125 2372.6962890625 2372.693359375 2372.671630859375 2372.661376953125 2372.65283203125 2372.635986328125 2372.632080078125 2372.6337890625 2372.638427734375 2372.630859375 2372.61962890625 2372.61328125 2372.596435546875 2372.588623046875 2372.569091796875 2372.561279296875 2372.539794921875 2372.519775390625 2372.51123046875 2372.488525390625 2372.470458984375 2372.467041015625 2372.44775390625 2372.43408203125 2372.42138671875 2372.3896484375 2372.381591796875 2372.376953125 2372.37060546875 2372.35498046875 2372.33642578125 2372.319580078125 2372.301513671875 2372.281982421875 2372.27880859375 2372.263427734375 2372.246826171875 2372.242919921875 2372.24072265625 2372.243408203125 2372.258056640625 2372.279296875 2372.2841796875 2372.283935546875 2372.283203125 2372.284423828125 2372.278564453125 2372.281494140625 2372.27294921875 2372.27099609375 2372.25537109375 2372.239990234375 2372.23486328125 2372.22705078125
2372.947265625 2372.930419921875 2372.927490234375 2372.91357421875 2372.9052734375 2372.8701171875 2372.844970703125 2372.840087890625 2372.807373046875 2372.780517578125 2372.779541015625 2372.769775390625 2372.77783203125 2372.77783203125 2372.77734375 2372.7763671875 2372.776123046875 2372.779296875 2372.7900390625 2372.78662109375 2372.794189453125 2372.7880859375 2372.7724609375 2372.7646484375 2372.76123046875 2372.759765625 2372.75634765625 2372.74951171875 2372.748291015625 2372.7275390625 2372.72607421875 2372.720947265625 2372.71484375 2372.7138671875 2372.7138671875 2372.717529296875 2372.722900390625 2372.7060546875 2372.680419921875 2372.674560546875 2372.658935546875 2372.63818359375 2372.62744140625 2372.626220703125 2372.614501953125 2372.594482421875 2372.593505859375 2372.59326171875 2372.59326171875 2372.591796875 2372.5771484375 2372.57080078125 2372.56640625 2372.548828125 2372.535888671875 2372.511474609375 2372.505859375 2372.48486328125 2372.469482421875 2372.45263671875 2372.43359375 2372.41162109375 2372.406982421875 2372.3876953125 2372.37060546875 2372.36572265625 2372.336181640625 2372.32666015625 2372.315673828125 2372.29638671875 2372.283203125 2372.281494140625 2372.2744140625 2372.24609375 2372.20947265625 2372.208740234375 2372.211669921875 2372.208984375 2372.20556640625 2372.205078125 2372.215576171875 2372.235107421875 2372.234619140625 2372.23388671875 2372.23388671875 2372.233154296875 2372.23193359375 2372.231689453125 2372.231201171875 2372.22998046875 2372.217529296875 2372.21533203125 2372.197998046875 2372.18505859375
