ncols 43
nrows 46
xllcorner -35.000000
yllcorner 85.000000
cellsize 5.000000
NODATA_value -9999
125.494105 124.126867 122.758437 120.408513 117.598244 116.360805 113.951587 111.534820 110.269182 109.003544 107.737906 106.472268 105.206629 103.940991 102.675353 101.409715 100.144077 98.878439 97.612801 96.347173 95.081536 93.815898 92.550261 91.284623 90.056083 88.827541 87.639567 86.459704 85.323634 84.153355 83.125861 82.270226 81.004682 79.739126 78.477468 77.217291 75.953685 74.688101 73.422509 72.160311 70.900765 69.635161 65.611188
123.553026 122.171348 120.778194 119.437829 116.490674 114.318799 113.073886 109.939129 108.236342 106.970704 105.705066 104.439428 103.173790 101.908151 100.642513 99.376875 98.111237 96.845598 95.579960 94.314333 93.048696 91.783058 90.517421 89.251783 88.023392 86.872200 85.692466 84.556548 83.386435 82.358966 81.502966 80.237440 78.971898 77.710250 76.452054 75.186485 73.920906 72.658717 71.399178 70.133581 68.224017 63.674792 61.932616
121.576679 120.162865 118.799145 117.413459 115.400103 112.240869 111.029458 109.767679 106.203503 104.937865 103.672226 102.406588 101.140950 99.875311 98.609673 97.344035 96.078396 94.812758 93.547120 92.281493 91.015855 89.750218 88.484580 87.256041 86.065441 84.925154 83.789462 82.619589 81.999040 80.735697 79.470194 78.208574 76.948428 75.684851 74.419290 73.157114 71.897586 70.637671 69.372079 64.990331 62.495630 61.080158 59.713678
119.742056 118.244146 116.848022 115.446784 114.106422 111.238796 108.968436 107.742532 106.469144 102.905025 101.639387 100.373749 99.108110 97.842472 96.576833 95.311194 94.045556 92.779917 91.514279 90.248652 88.983014 87.717377 86.451740 85.223448 84.072821 82.978558 81.899090 81.231720 79.968416 78.702944 77.441347 76.183189 74.917655 73.655500 72.395986 71.136085 69.870503 67.113623 63.072398 61.728439 60.312828 58.946192 57.966281
117.741871 116.316298 114.883445 113.467777 112.082054 110.809266 106.877485 105.688911 104.436324 103.239979 99.606547 98.340909 97.075271 95.809632 94.543993 93.278354 92.012715 90.747077 89.481438 88.215811 86.950174 85.684537 84.456014 83.305334 82.211456 81.132462 80.464368 79.201121 77.935692 76.679511 75.415990 74.153866 72.894377 71.634494 70.368929 69.103350 63.580071 62.320433 60.897443 59.446024 58.056696 56.798971 56.520287
115.709042 114.443393 112.966551 111.532837 110.147341 108.774979 106.192519 103.611306 102.411168 101.137764 100.345161 96.308070 95.042431 93.776792 92.511153 91.245514 89.979875 88.714235 87.448597 86.182969 84.917332 83.651696 82.498259 81.359672 80.366083 79.696969 78.433810 77.172338 75.914270 74.648811 73.392752 72.132899 70.867356 69.601794 64.032679 62.831917 61.515411 60.138051 58.678545 57.288958 55.873712 55.598740 54.899288
113.676215 112.410566 111.140301 109.614245 108.178145 106.750617 105.477800 101.848797 100.338639 99.112599 97.908374 97.302928 93.009592 91.743953 90.478314 89.212674 87.947034 86.681394 85.415754 84.150127 82.884490 81.656052 80.592379 79.600156 78.929498 77.666483 76.410477 75.147093 73.891102 72.631300 71.365793 70.103446 65.566309 63.211439 62.088221 60.748320 59.370726 57.910939 56.378494 54.771950 54.547947 54.131582 52.866288
111.654522 110.377742 109.112090 107.841822 106.236351 104.815835 103.443190 101.329916 98.236026 97.068255 95.806352 95.013563 93.840200 89.711114 88.445475 87.179834 85.914193 84.648551 83.382909 82.117282 80.851648 79.739686 78.835178 78.164027 76.903030 75.645254 74.389409 73.129703 71.867445 70.605440 67.368487 63.190515 62.457749 61.321298 59.983559 58.510730 57.021758 55.610240 53.812765 53.328032 53.363798 52.098544 50.833290
109.623461 108.356050 107.079269 105.813614 104.387958 102.878429 101.419124 100.148579 96.615607 94.973705 93.781172 92.576538 92.017616 89.407311 86.412636 85.146996 83.881354 82.615709 81.350061 80.084432 78.856631 78.119431 77.396239 76.143072 74.887630 73.628138 72.369478 71.104025 67.748971 63.791200 62.506509 61.756275 60.563035 59.177460 57.644386 56.253661 54.681215 53.043403 51.969036 52.595919 51.330709 50.065505 48.800297
107.597290 106.324993 105.057580 103.780798 102.515136 100.980217 99.484291 98.111573 96.872135 92.823049 91.727712 90.474875 89.808846 88.959671 84.379799 83.114159 81.848518 80.582872 79.317203 78.051568 77.587968 76.628208 75.385661 74.133462 72.896148 71.648769 66.684470 64.486498 62.978778 61.866101 61.010047 59.777183 58.336791 56.876599 55.343463 53.735823 52.067428 50.540506 51.323850 50.562764 49.297616 48.032469 46.767314
105.571592 104.298825 103.026529 101.759113 100.482328 99.212045 97.601945 96.087528 94.816908 91.472502 89.583434 88.449688 87.175946 86.841761 85.796418 81.357527 79.961293 78.563246 77.328925 76.896076 75.890288 74.720196 73.456743 71.774856 67.262353 65.260247 63.608849 62.154372 61.152209 60.259446 59.005094 57.569488 55.988190 54.414977 52.775977 51.072839 48.796616 49.840850 49.794680 48.529597 47.264522 45.999442 44.734346
103.546090 102.273129 101.000365 99.728070 98.460650 97.183859 95.904785 94.159437 92.779679 91.559105 87.422513 86.328467 85.143229 84.606596 83.770116 82.657198 79.320859 78.061212 76.831194 75.150760 73.199529 70.689225 68.217356 66.232479 64.341380 62.732196 61.400640 60.472791 59.533624 58.238484 56.811125 55.219219 53.470295 51.799550 49.818318 47.481425 47.456366 49.026423 47.761412 46.496422 45.231433 43.966430 42.701401
101.514136 100.247630 98.981989 97.709029 96.436262 95.162194 93.885390 92.414742 90.749889 89.492415 86.129474 84.123736 83.118214 81.843146 81.749315 80.667504 78.985923 75.029973 73.401274 71.492380 69.443543 67.239280 65.149090 63.363286 61.891298 60.670270 59.749411 58.784157 57.445168 55.850058 54.309422 52.510530 50.803683 48.527866 46.166035 44.654420 48.257952 46.993016 45.728124 44.463246 43.198359 41.933445 40.668490
99.489039 98.223405 96.953823 95.683539 94.417894 93.137824 91.864547 90.586919 88.859622 87.448574 86.238983 82.061443 80.840101 79.817858 79.740200 78.652139 77.366269 71.712601 69.849079 68.032278 66.057741 64.125418 62.498622 61.095102 59.943252 59.040667 58.039982 56.689644 55.086478 53.380242 51.533086 49.549215 47.212617 44.865630 42.749508 45.506361 46.224346 44.959563 43.694821 42.430081 41.165314 39.900500 38.635627
97.460329 96.194696 94.929063 93.659312 92.389741 91.119468 89.846518 88.566137 87.283824 85.417706 84.198982 82.797840 78.739822 77.597053 77.072697 76.598129 70.590904 67.834031 66.607599 64.698442 62.999240 61.710937 60.317270 59.251894 58.290381 57.303022 55.937494 54.193614 52.253485 50.533179 48.258098 45.897185 43.607627 41.383839 42.518884 45.455329 44.190655 42.926071 41.661517 40.396944 39.132316 37.867614 36.602828
95.427491 94.161859 92.896227 91.630598 90.364971 89.099347 87.829627 86.555459 85.268798 83.909052 82.113287 80.774473 79.202245 75.710071 73.205247 70.443285 67.542309 65.159356 63.304879 61.834244 60.358295 59.496400 58.504292 57.589013 56.571860 55.113904 53.404972 51.273766 49.276880 47.195929 44.844879 42.399484 40.605448 39.830430 43.399655 43.421281 42.156872 40.892551 39.628235 38.363862 37.099394 35.834813 34.570116
93.401063 92.135429 90.869795 89.604162 88.332136 87.066516 85.800906 84.535315 83.269774 81.984883 80.213646 78.332480 76.007588 72.228472 69.931667 67.076921 64.634302 62.455448 60.732605 59.487662 58.373019 57.396115 56.662337 55.891359 54.319184 52.420689 50.248823 47.978090 45.865276 43.563149 41.426886 39.605247 38.180341 40.423470 42.651301 41.387040 40.123001 38.859031 37.595014 36.330878 35.066586 33.802131 32.537517
91.368224 90.102590 88.836956 87.571323 86.305693 85.040065 83.777934 82.512314 81.251102 79.902067 76.313888 73.846044 71.263569 68.679944 66.348584 63.988088 61.712416 59.735677 58.477189 57.294091 56.282299 55.059069 54.165151 53.271772 51.146804 48.882459 46.745808 44.529696 42.504291 40.466722 38.815901 37.399045 37.408727 40.981794 40.616329 39.352578 38.089066 36.825562 35.561916 34.298051 33.033945 31.769607 30.505062
89.338890 88.073254 86.807619 85.541984 84.276351 83.015137 81.752170 80.416716 79.121763 75.403452 71.450319 69.536820 67.416232 64.894879 62.781025 60.570481 58.563257 57.174931 55.909739 54.710129 53.895951 52.114037 50.858609 49.317413 47.118954 45.062121 43.213965 41.255450 39.500887 37.944605 36.611748 35.734524 37.582462 39.844473 38.580839 37.317882 36.055133 34.792248 33.529045 32.265469 31.001536 29.737291 28.472785
87.306049 86.040413 84.779202 83.514585 82.248653 80.916735 79.633465 78.069693 71.240970 69.301180 67.283139 65.286361 63.688566 61.442534 59.324424 57.223108 55.226091 53.958712 53.297730 52.189100 50.544166 48.722944 47.182327 45.650339 43.843343 41.712422 39.987091 38.404975 36.948782 35.820128 34.818455 34.763374 37.509460 37.807200 36.544658 35.282995 34.021361 32.759267 31.496555 30.233248 28.969439 27.705232 26.440717
85.278655 84.014671 82.729285 81.415182 80.135350 78.860864 73.861075 69.441819 67.598892 65.493644 63.463809 61.472635 59.755681 57.998053 56.040555 54.167582 51.927506 50.378516 49.741272 49.330233 47.712156 45.403884 43.450447 42.218343 40.661132 38.929373 37.251357 35.950005 34.781680 33.972178 33.247077 34.430063 37.031524 35.768043 34.507603 33.248138 31.988098 30.726930 29.464666 28.201526 26.937737 25.673478 24.408881
83.227424 81.915228 80.633797 79.364720 77.182626 69.602450 67.892288 66.018701 64.075638 61.709586 59.644745 57.941928 56.187479 54.312587 52.569756 50.883531 48.864363 47.019679 46.075200 45.182879 44.590561 42.221634 40.469611 39.019865 37.913402 36.506123 35.013556 33.815655 32.913856 32.293730 32.103065 33.587100 34.987204 33.725569 32.469681 31.214024 29.956043 28.695704 27.433644 26.170442 24.906493 23.642054 22.377285
81.132238 79.863167 78.597517 70.324044 68.226389 66.504936 64.046233 61.987989 60.157623 58.320867 56.582401 54.906204 53.081490 50.882010 48.898866 47.540723 45.913385 44.171546 42.567702 41.470990 39.738746 39.356307 37.392749 36.394326 35.490390 34.286223 33.035399 32.026368 31.283804 30.850582 31.062269 32.734536 32.932928 31.676695 30.432220 29.182603 27.926396 26.666161 25.403726 24.140075 22.875723 21.610948 20.345907
79.095963 72.715235 68.603602 66.432372 64.161292 62.488175 60.721784 58.629317 57.042059 55.296965 53.574616 51.677711 50.034230 47.922107 45.288209 44.268776 42.680597 41.334400 39.452746 38.044127 36.961761 35.762607 34.992542 33.991856 33.209068 32.368338 31.367492 30.491595 29.894958 29.632279 30.066984 31.424323 30.846766 29.616566 28.402939 27.157929 25.900533 24.638659 23.374943 22.110368 20.845353 19.580096 18.314696
69.101477 66.400912 64.504628 62.912041 61.205413 59.073499 57.399310 55.728135 54.090132 52.254883 50.504356 48.803971 46.896535 44.724769 42.656882 40.859782 39.800922 38.412823 36.847356 35.627471 34.423116 33.110680 32.761483 32.083425 31.392654 30.746811 29.927264 29.232055 28.945985 28.532550 28.971762 29.808933 28.659622 27.618410 26.403558 25.143200 23.878398 22.612758 21.346927 20.081062 18.815209 17.549376 16.283567
64.944829 63.410046 61.555419 59.486718 57.707132 56.173266 54.538326 52.672832 50.986479 49.410966 47.610576 45.796587 43.639153 41.740587 40.156231 38.624411 37.204955 36.143436 34.773564 33.516601 32.771326 31.905020 31.073563 30.999132 30.116705 29.789356 29.154999 28.741196 28.241599 28.286251 28.129196 28.300337 27.523142 25.935456 24.561602 23.285377 21.968832 20.701117 19.379324 18.112617 16.846264 15.580122 14.314112
61.917416 59.984675 58.115629 56.599960 54.908585 53.190229 51.447713 49.834013 48.212601 46.573830 44.524724 42.696365 40.835501 39.285047 37.943065 36.701166 35.600987 34.433303 33.455141 32.214734 31.454081 30.978749 30.377860 29.974011 29.568979 29.064519 28.890308 28.434396 28.350800 28.374572 29.295217 28.519505 26.566684 24.361578 22.642286 21.336721 20.032397 18.722029 17.454383 16.187560 14.871460 13.605109 12.338963
58.504952 57.054005 55.406830 53.688877 51.945707 50.406665 48.780030 47.152515 45.432351 43.543747 41.670466 40.004684 38.564461 37.307488 36.202939 35.208323 34.518399 33.699146 32.644369 31.680122 31.091557 30.512434 30.113446 29.828679 28.971449 29.093009 28.887052 28.735392 28.292934 28.816439 28.344159 27.794622 26.680708 25.484411 23.410367 19.550129 18.037771 16.734691 15.466859 14.157003 12.890174 11.623711 10.357485
55.905186 54.189666 52.443958 50.905406 49.346361 47.712993 46.132795 44.521348 42.502665 40.750434 39.308388 37.972820 36.838797 35.867497 34.948692 34.014664 33.363913 33.023343 32.246458 31.315692 30.623018 30.410867 29.968866 29.745116 29.612110 29.220011 29.520574 28.892507 28.730287 28.454665 28.140934 26.989328 25.566827 24.170165 22.834145 21.427912 19.273123 16.271153 13.470659 12.168701 10.901922 9.635476 8.325727
52.942308 51.403992 49.845663 48.274606 46.636054 45.109550 43.334764 41.457558 39.915890 38.741463 37.745309 36.911271 35.967323 35.080846 34.290910 33.344320 32.545285 32.150941 31.618252 30.960019 30.624604 30.467557 30.185448 29.774054 29.535088 29.432197 29.117856 28.880567 28.940830 28.637035 28.014257 27.779128 25.683233 23.613794 21.835059 20.652854 19.348137 18.033940 14.818511 12.455233 10.079419 7.603619 6.337283
50.489416 48.925918 47.196340 45.613408 44.053592 42.311534 40.641829 39.528209 38.782192 38.300514 37.998226 37.036363 36.086185 35.077959 34.028009 32.953577 31.923788 31.497012 31.122426 30.694124 30.531734 30.226001 29.914551 29.791614 29.530887 29.602194 28.936844 28.958405 28.749045 28.553200 27.861194 27.567347 27.163408 25.942844 24.797606 23.531675 22.264856 21.933877 20.994697 19.272013 18.015471 16.315646 11.771307
47.696345 46.114722 44.556848 43.047804 41.549087 40.720294 40.494845 40.332445 39.355600 38.548992 37.612000 36.661533 35.649018 34.521492 33.493454 32.481186 31.541342 31.008988 30.874306 30.589388 30.614921 30.228370 30.070524 29.695097 29.575833 29.265336 29.036763 28.790181 28.369704 28.192427 27.619281 26.985102 25.521573 24.223203 23.375528 22.932712 21.730557 20.490279 19.232754 17.967396 16.698514 15.428135 14.157237
45.344132 43.683711 42.943898 42.912140 42.969783 42.298941 41.336655 40.377832 39.683647 38.945121 37.932655 37.116987 36.253906 35.176413 34.231469 33.217214 31.811115 30.991215 30.757221 30.710352 30.379541 30.496919 30.129666 29.834188 29.608806 29.292264 28.813438 28.707661 28.281124 27.774137 26.859405 26.676716 25.153967 24.171627 22.893649 21.454908 20.123043 20.164740 19.774505 19.863982 19.616138 19.015943 18.741325
45.260022 45.941921 45.524761 44.770598 43.740852 42.907940 41.839607 40.937187 39.831673 38.715237 37.717645 36.655723 35.497890 34.393994 33.176394 32.071100 31.250524 30.409543 31.259448 30.444532 30.458252 30.608677 30.383689 30.173176 29.275644 28.934748 28.631689 28.333966 28.224279 28.489508 27.695161 27.849039 27.665744 27.486713 26.640375 25.472640 24.251299 23.010420 21.759461 20.680751 19.422187 18.161792 16.900176
47.594463 46.500648 45.394263 44.420916 43.279148 42.148138 40.976663 39.828476 38.631219 37.470703 36.310941 35.230672 34.185194 33.309179 32.716474 33.036815 32.176104 31.757567 30.063334 30.762794 30.754072 30.525296 30.409978 30.211306 29.695950 28.947550 27.694760 27.170428 27.547733 27.872069 27.473155 28.320929 27.284663 26.186972 25.052187 23.828261 22.582830 21.185387 19.925991 18.664827 17.402559 16.139551 14.876025
47.028240 46.401503 45.684587 44.954902 44.474122 43.701897 43.213010 42.789414 42.514546 41.249007 39.983497 38.718032 37.452640 36.187382 34.922401 33.658164 32.396400 31.170345 29.673770 30.563119 30.673411 30.459779 30.072488 29.762764 29.518774 29.172914 27.859898 25.111376 26.291196 25.743305 26.703373 27.046284 25.893762 24.502056 23.213038 21.949131 20.580132 19.315937 18.052229 16.788491 15.524578 14.260466 12.996168
50.128404 49.340869 48.075264 46.809665 45.544073 44.278489 43.012916 41.747357 40.481819 39.216310 37.950845 36.685449 35.420170 34.155117 32.890560 31.627301 30.366563 29.133052 27.781295 30.414686 29.565019 29.198656 28.528513 28.035646 27.864983 27.221853 25.900098 24.418054 24.576313 23.840825 26.007601 25.118460 23.855715 22.589359 21.278724 19.940683 18.670618 17.403918 16.138507 14.873565 13.500961 12.235282 10.969834
48.573665 47.308060 46.042460 44.776865 43.511278 42.245701 40.980137 39.714589 38.449064 37.183572 35.918127 34.652755 33.387496 32.122425 30.857651 29.593203 28.328214 27.060813 25.856993 28.674453 27.710342 27.114796 26.525365 26.328641 25.808930 25.149787 23.873390 22.570239 22.561473 22.496404 24.349655 23.085369 21.821182 20.555631 19.289704 17.982042 16.649028 15.379607 14.112128 12.845696 11.579822 10.314246 9.048826
46.540850 45.275247 44.009649 42.744058 41.478474 40.212901 38.947341 37.681798 36.416278 35.150788 33.885340 32.619951 31.354642 30.089433 28.824313 27.559137 26.293502 25.027088 23.823969 26.796792 25.726890 25.057808 24.553919 24.466583 23.772529 23.058375 21.848030 20.539661 20.583177 21.719140 22.317417 21.052295 19.787097 18.522214 17.256517 15.990732 14.684088 13.416707 12.084512 10.817145 9.550501 8.284311 7.018406
44.508029 43.242428 41.976832 40.711242 39.445661 38.180089 36.914529 35.648985 34.383461 33.117962 31.852496 30.587068 29.321683 28.056333 26.790975 25.525503 24.259764 22.993694 21.775560 24.790981 23.725754 23.023641 22.531852 22.543599 21.738167 20.971235 19.806605 18.534230 18.195791 20.607624 20.284626 19.019298 17.753925 16.489025 15.223403 13.957708 12.691982 11.385807 10.118977 8.787771 7.520660 6.254044 4.987773
42.475205 41.209604 39.944008 38.678419 37.412837 36.147264 34.881701 33.616152 32.350619 31.085105 29.819612 28.554140 27.288685 26.023229 24.757736 23.492148 22.226404 20.960492 20.387722 22.803695 21.693024 20.990210 20.480354 20.560674 19.704490 18.934984 17.767888 16.512260 15.916010 19.161462 18.251783 16.986350 15.720888 14.455962 13.190363 11.924712 10.659029 9.393333 8.087412 6.820910 5.490264 4.223394 2.956874
40.442376 39.176775 37.911179 36.645588 35.380004 34.114428 32.848861 31.583304 30.317758 29.052226 27.786705 26.521193 25.255682 23.990157 22.724592 21.458957 20.193225 18.927398 18.859176 20.772250 19.660079 18.935424 18.450009 18.575983 17.613627 16.844144 15.705602 14.473757 13.566022 17.484421 16.218925 14.953431 13.687918 12.422972 11.157377 9.891746 8.626089 7.360416 6.055955 4.788971 3.522678 2.256553 0.925692
38.409543 37.143941 35.878344 34.612751 33.347164 32.081583 30.816009 29.550443 28.284885 27.019334 25.753788 24.488244 23.222693 21.957124 20.691520 19.425865 18.160148 16.894372 16.999015 18.810965 17.671578 16.876204 16.446449 16.544071 15.579723 14.776435 13.655273 12.434770 11.176922 15.451593 14.186062 12.920531 11.654987 10.390025 9.124428 7.858805 6.593163 5.327507 4.061842 2.757283 1.490993 0.224357 -1.041678
36.376706 35.111103 33.845504 32.579908 31.314317 30.048731 28.783150 27.517575 26.252004 24.986437 23.720870 22.455301 21.189721 19.924124 18.658499 17.392837 16.127133 14.861389 15.330656 16.805995 15.682307 14.843163 14.349452 14.511764 13.484734 12.743106 11.598087 10.398663 9.142317 13.418755 12.153201 10.887645 9.622080 8.356500 7.091504 5.825885 4.560251 3.294605 2.028951 0.763291 -0.541332 -1.807480 -3.074016
34.343867 33.078261 31.812659 30.547061 29.281466 28.015874 26.750286 25.484702 24.219119 22.953538 21.687955 20.422366 19.156768 17.891153 16.625516 15.359852 14.094158 12.828437 13.760913 14.793373 13.714539 12.810182 12.319672 12.479246 11.451104 10.710007 9.539376 8.339556 7.102113 11.385911 10.120340 8.854767 7.589188 6.323598 5.058599 3.792981 2.527351 1.261711 -0.003936 -1.269588 -2.535243 -3.839911 -5.105959
32.311024 31.045416 29.779812 28.514210 27.248610 25.983013 24.717419 23.451826 22.186233 20.920640 19.655044 18.389442 17.123830 15.858204 14.592560 13.326897 12.061211 10.795506 12.121669 12.760749 11.741691 10.777238 10.262601 10.446605 9.377321 8.635550 7.505693 6.290428 5.068033 9.353066 8.087482 6.821897 5.556307 4.290709 3.025707 1.760088 0.494461 -0.771175 -2.036817 -3.302464 -4.568114 -5.833766 -7.138465
